# .PCD v0.7 - Point Cloud Data file format
VERSION 0.7
FIELDS x y z rgb
SIZE 4 4 4 4
TYPE F F F F
COUNT 1 1 1 1
WIDTH 1003
HEIGHT 1
VIEWPOINT 0 0 0 1 0 0 0
POINTS 1003
DATA ascii
0.61318988 0.33196101 0.65644401 1.2450045e-38
0.58737141 0.34142944 0.6518271 1.7557345e-39
0.59572417 0.34406596 0.65409946 2.5862266e-39
0.60239375 0.3427403 0.65566498 4.246471e-39
0.46789414 -0.42124665 0.66081119 6.2448278e-39
0.4594464 -0.41150033 0.66212571 6.2448278e-39
0.46312883 -0.41571733 0.6616354 6.2448278e-39
0.45429173 -0.40373245 0.66409153 6.2448278e-39
0.44851494 -0.39407697 0.665479 6.9841794e-39
0.4440808 -0.38579184 0.66399574 7.1685707e-39
0.4378683 -0.37558112 0.66490519 8.4557068e-39
0.44003624 -0.37998813 0.66825783 8.9177555e-39
0.43261385 -0.36662605 0.66485476 8.0883648e-39
0.42679819 -0.35605255 0.6658693 1.0300683e-38
0.41843012 -0.34111366 0.66716599 9.0095938e-39
0.42178464 -0.34680632 0.66439945 9.6567555e-39
0.41533405 -0.33485037 0.66469455 8.9170381e-39
0.4087719 -0.32251129 0.66566479 8.186303e-39
0.41142556 -0.32760158 0.66585493 8.4610906e-39
0.40498325 -0.31515744 0.66443574 6.4302952e-39
0.39851272 -0.30223343 0.6672594 6.2448278e-39
0.40112165 -0.30777577 0.66660082 6.2448278e-39
0.63561547 -0.30262762 0.66642106 2.5830037e-39
0.39808691 -0.29371446 0.66525769 6.894516e-39
0.40128964 -0.29128477 0.66639829 6.2448278e-39
0.6260184 -0.29302403 0.66595256 2.8599577e-39
0.63153845 -0.29828423 0.66697341 2.8599563e-39
0.40582848 -0.2867153 0.66423821 7.0749359e-39
0.41158625 -0.28176734 0.66452813 7.0785485e-39
0.61816537 -0.28234288 0.66521394 3.1365404e-39
0.62205166 -0.28622535 0.665618 2.8599577e-39
0.41656381 -0.27810687 0.66460145 8.6537929e-39
0.42540643 -0.27385318 0.66534442 7.541686e-39
0.43122929 -0.27083376 0.66591656 8.0966591e-39
0.61590427 -0.27535582 0.66529983 3.1361816e-39
0.43618253 -0.26799169 0.66527468 7.8193547e-39
0.44099519 -0.26543143 0.66482836 6.2448278e-39
0.60716158 -0.26404241 0.66479963 1.0141533e-38
0.61120868 -0.26891345 0.66493356 6.1782451e-39
0.59752518 -0.2521823 0.66503656 6.7245062e-39
0.60191011 -0.25756419 0.66517752 7.9248515e-39
0.58856738 -0.24111573 0.66394126 6.6308687e-39
0.59271097 -0.24611355 0.66513664 6.0773319e-39
0.57911229 -0.23032741 0.6601423 7.2784031e-39
0.58395219 -0.23509109 0.66532779 6.169166e-39
0.57558978 -0.22497544 0.66499394 6.5390318e-39
0.56656784 -0.21441701 0.66515571 7.1869263e-39
0.57132179 -0.2192167 0.66747946 5.6152706e-39
0.55694324 -0.2038822 0.66494262 1.124787e-38
0.56147188 -0.20869569 0.66585791 8.1099658e-39
0.54864305 -0.19211757 0.66447109 2.9517932e-39
0.55198938 -0.19732942 0.66481674 6.2704393e-39
0.56434715 -0.19868307 0.66135788 1.0786166e-38
0.53847134 -0.18690358 0.66306043 2.9521561e-39
0.54418898 -0.18477647 0.66489536 2.8599577e-39
0.53859133 -0.17324775 0.66447783 2.8599577e-39
0.54102272 -0.17725356 0.66708416 2.8599577e-39
0.53846163 -0.16546828 0.66485226 2.8599577e-39
0.54135239 -0.16094601 0.66510272 2.8599577e-39
0.54605097 -0.15779079 0.66567433 2.8599577e-39
0.55445111 -0.15295385 0.66592866 2.8599577e-39
0.5651207 -0.15020798 0.66677231 3.2287458e-39
0.56519347 -0.14945237 0.66520154 3.4131315e-39
0.57461876 -0.14849302 0.66522431 1.0325932e-38
0.58079147 -0.1489331 0.66847813 1.2260575e-38
0.44602743 -0.072125323 0.66608703 7.0094e-39
0.43722248 -0.063499168 0.66482162 6.1771072e-39
0.4410271 -0.068294123 0.66495979 6.0852717e-39
0.7062344 -0.063448615 0.66717255 7.8063773e-39
0.71447527 -0.068070635 0.66371423 1.3224311e-38
0.43430156 -0.055486757 0.66514587 6.638807e-39
0.69797528 -0.052980326 0.66492623 6.6121557e-39
0.70130992 -0.057376541 0.66625959 6.8876622e-39
0.43663716 -0.046141442 0.66505003 6.9190149e-39
0.44125786 -0.040992074 0.66457093 7.2874372e-39
0.69311315 -0.04510719 0.66511828 7.2550042e-39
0.44601417 -0.037710067 0.66514367 7.195243e-39
0.453859 -0.032293402 0.66504687 3.2337414e-39
0.68580872 -0.034704939 0.66531223 8.7243721e-39
0.45855474 -0.028970649 0.66491151 2.8653233e-39
0.46412665 -0.024745794 0.66545093 4.8921712e-39
0.47065514 -0.020530518 0.66589582 7.6558582e-39
0.67768621 -0.023121191 0.66470039 8.7243721e-39
0.68085521 -0.027645729 0.66518086 8.7243721e-39
0.47614926 -0.018957121 0.66788095 7.4729145e-39
0.48227191 -0.018948095 0.66622621 8.0264498e-39
0.66905081 -0.010847789 0.66577172 8.7243721e-39
0.67274034 -0.016119236 0.66486782 8.7243721e-39
0.6651088 -0.004968496 0.66499233 8.7243721e-39
0.67212093 -0.008921966 0.66959357 7.9900483e-39
0.65738964 0.0063188379 0.66487753 8.7243721e-39
0.66101819 0.0010340393 0.66474324 8.7243721e-39
0.64856583 0.018662494 0.66493648 8.7243721e-39
0.6524058 0.013322776 0.6652534 8.7243721e-39
0.64384907 0.025800966 0.66561228 8.7243721e-39
0.6384331 0.036076076 0.6648683 8.8162076e-39
0.64071357 0.033153646 0.66791427 8.9080431e-39
0.45644641 0.049263727 0.66562819 7.467846e-39
0.46168709 0.049462534 0.66258889 7.0990635e-39
0.63892633 0.040872417 0.66624761 8.8162076e-39
0.64460778 0.045624331 0.6637879 8.7243721e-39
0.44979987 0.053552229 0.66345036 7.6582587e-39
0.45131096 0.054793138 0.66639882 7.5664232e-39
0.6496222 0.051392823 0.667081 8.7243721e-39
0.65451562 0.055166513 0.66438836 8.8183684e-39
0.66027486 0.0595553 0.66427255 8.7243721e-39
0.45694011 0.062860951 0.66509169 8.3064685e-39
0.46252739 0.06753318 0.66544807 8.3064685e-39
0.65836483 0.063114069 0.66611117 1.3737147e-38
0.66535252 0.06318447 0.66515934 8.7243721e-39
0.67248356 0.067811668 0.66514981 8.7243721e-39
0.46694729 0.070997722 0.66539437 8.3064685e-39
0.47471309 0.076088011 0.66455823 8.3064685e-39
0.48053235 0.07985907 0.66800511 8.3064685e-39
0.49090448 0.079918794 0.6682446 8.4887046e-39
0.67766404 0.070657112 0.66472358 8.7243721e-39
0.68120199 0.07251174 0.66610867 8.7243721e-39
0.4845691 0.082608305 0.66496271 8.3983096e-39
0.49251047 0.087860495 0.66558278 9.6858591e-39
0.49741632 0.091021039 0.66390061 9.134102e-39
0.50507307 0.09577769 0.6650039 8.3983068e-39
0.51608676 0.090439297 0.66545212 8.3064685e-39
0.51540864 0.10215677 0.66528237 9.0419036e-39
0.52475411 0.10736649 0.66428989 8.9500639e-39
0.53445011 0.11252218 0.66514689 8.3983054e-39
0.54376078 0.11748446 0.66447264 8.3061098e-39
0.60934138 0.12942675 0.66457283 9.1979269e-40
0.60719812 0.13509108 0.66478008 2.3931081e-39
0.60582906 0.14499895 0.66490507 8.3880031e-39
0.60748321 0.15169512 0.66377717 1.1985432e-38
0.61178726 0.15489461 0.66423678 1.1708845e-38
0.44514874 0.19645564 0.66459912 1.1706156e-38
0.45254382 0.19158457 0.66496694 1.1983106e-38
0.43682906 0.20606469 0.66548949 1.1153358e-38
0.44038609 0.20119144 0.66357875 1.1706156e-38
0.42937496 0.21847077 0.66331702 3.1361816e-39
0.43192595 0.21394785 0.66521746 3.2283703e-39
0.42716354 0.22465172 0.66459346 4.2421368e-39
0.42680717 0.23287492 0.66541815 7.7436664e-39
0.43241742 0.23810472 0.66479599 6.2689301e-39
0.43753156 0.24197435 0.66594154 6.6377014e-39
0.44299006 0.24569996 0.66694099 9.1258357e-39
0.61552513 0.29140568 0.66040105 9.2231994e-39
0.59441108 0.31431577 0.66033334 4.4304966e-39
0.45300537 -0.40351859 0.67519438 6.2448278e-39
0.44800341 -0.39501518 0.67528927 6.5224894e-39
0.44178432 -0.38415724 0.67478502 8.9220617e-39
0.43588224 -0.37390831 0.67520958 9.9304613e-39
0.42921281 -0.361763 0.67435229 1.0575472e-38
0.4319014 -0.36673617 0.67518157 1.0205253e-38
0.42549619 -0.35513368 0.67485684 1.0761658e-38
0.41873378 -0.34256953 0.67537349 1.0579778e-38
0.4214288 -0.34772563 0.67555952 1.0857443e-38
0.41498375 -0.33535412 0.67461818 1.0674121e-38
0.40811977 -0.32249716 0.67591882 7.3533179e-39
0.41091862 -0.32766253 0.67500591 9.8465221e-39
0.40410087 -0.31471813 0.67434078 6.2451865e-39
0.39821327 -0.3031657 0.67610532 6.2448278e-39
0.40037048 -0.30710158 0.67643148 6.337022e-39
0.41055682 -0.30741805 0.67949003 6.2448278e-39
0.63673109 -0.30284458 0.67519373 2.6752007e-39
0.64422321 -0.30812481 0.67433548 3.1369173e-39
0.39721414 -0.29625994 0.67531711 6.8016015e-39
0.40121356 -0.29165554 0.67369944 6.2448278e-39
0.62711132 -0.29312372 0.67551178 2.8599577e-39
0.63169074 -0.29803121 0.67452592 2.8595975e-39
0.40608963 -0.28604558 0.67507279 7.2589671e-39
0.41102868 -0.28097612 0.67481112 7.6338803e-39
0.61935568 -0.28028673 0.67467225 2.8599577e-39
0.62220788 -0.28525195 0.67486233 2.8599577e-39
0.4161233 -0.27839825 0.67476922 8.6530713e-39
0.42489961 -0.27503166 0.67517102 8.004825e-39
0.43369997 -0.27148616 0.67500627 7.1711043e-39
0.61627346 -0.2747623 0.67529142 5.901661e-39
0.62461615 -0.27595392 0.67711782 6.9276595e-39
0.43815598 -0.26879948 0.67327034 9.2084044e-39
0.44241223 -0.26707625 0.67547154 7.8189932e-39
0.60756564 -0.26298612 0.67505234 1.1616649e-38
0.61207622 -0.26834169 0.67552954 1.1616649e-38
0.59887558 -0.25226524 0.67460686 6.2613617e-39
0.60273951 -0.25694245 0.67535162 9.9546015e-39
0.58892918 -0.24006818 0.67129767 5.9836944e-39
0.59339195 -0.24525163 0.6748417 5.9840545e-39
0.58525366 -0.2346507 0.6749357 5.8918575e-39
0.59762287 -0.23837802 0.67735326 5.2674375e-39
0.577106 -0.22426468 0.67468661 5.9836944e-39
0.58135903 -0.22924019 0.67680627 5.9836944e-39
0.5668121 -0.21236323 0.67442924 5.9840545e-39
0.57186872 -0.21761602 0.67596424 5.8918575e-39
0.55785078 -0.20242429 0.67564988 1.1616649e-38
0.5624063 -0.20758891 0.67460704 7.8315741e-39
0.54893351 -0.19205333 0.67523855 2.9517932e-39
0.55276501 -0.1968556 0.67534816 8.5745873e-39
0.54582745 -0.1851881 0.67512298 3.1361816e-39
0.5398494 -0.17051575 0.67626607 2.8599577e-39
0.5419786 -0.17570417 0.67505717 2.8599577e-39
0.53846753 -0.16553289 0.67501098 2.8599577e-39
0.54123282 -0.16097552 0.6741482 2.8599577e-39
0.55518031 -0.16125396 0.67032927 2.8599577e-39
0.54633343 -0.15764639 0.67554319 2.8599577e-39
0.55489302 -0.15320112 0.67501479 2.8599577e-39
0.56131071 -0.15052135 0.67645192 2.8599577e-39
0.5653646 -0.14880131 0.67768365 2.9521519e-39
0.57724512 -0.1498258 0.67035007 1.3183975e-38
0.44706348 -0.072087459 0.67370033 6.8253703e-39
0.45219919 -0.074420616 0.67582685 7.5629367e-39
0.43684605 -0.063274018 0.67502058 5.9927159e-39
0.44150376 -0.0688399 0.67524999 6.4540556e-39
0.70792669 -0.063111097 0.67357129 6.796547e-39
0.71230233 -0.067021057 0.67524195 8.0998919e-39
0.43422094 -0.05416514 0.67468542 7.2841778e-39
0.69808638 -0.052265801 0.6738559 6.6121557e-39
0.70301497 -0.057718858 0.67416346 6.5203202e-39
0.4369716 -0.045746535 0.67479581 7.2870757e-39
0.44133508 -0.041176707 0.67552835 6.5505953e-39
0.6897952 -0.040874485 0.67632377 8.7243721e-39
0.69311357 -0.045611709 0.67482936 8.7265329e-39
0.44654301 -0.037402134 0.67500216 6.1814568e-39
0.45390961 -0.03251835 0.67405307 2.6755314e-39
0.68583143 -0.035166815 0.67502165 8.7243721e-39
0.45845389 -0.029093653 0.67655569 2.7659292e-39
0.46521404 -0.024277065 0.67500222 4.3368436e-39
0.47399321 -0.021301603 0.67434239 6.7353509e-39
0.67766529 -0.023491381 0.6752041 8.7243721e-39
0.68133545 -0.028759936 0.67583078 8.7243721e-39
0.66915554 -0.011293828 0.67463982 8.7243721e-39
0.67276067 -0.016500138 0.67515218 8.7243721e-39
0.6648519 -0.0049716602 0.67472517 8.7243721e-39
0.6572383 0.0062618447 0.67509913 8.7243721e-39
0.66072947 0.0011778543 0.67409229 8.7243721e-39
0.64854705 0.01856279 0.67472053 8.7243721e-39
0.65225416 0.013506982 0.67499816 8.7243721e-39
0.64408213 0.025132943 0.67538053 8.7243721e-39
0.63917899 0.036477134 0.67721879 9.5523321e-39
0.64157176 0.035892997 0.67388511 9.3693814e-39
0.46298656 0.049233943 0.67394656 3.5034339e-39
0.63944244 0.043061659 0.67340517 9.3675807e-39
0.64287204 0.045218725 0.67710364 9.8263981e-39
0.45188019 0.054787803 0.67552173 7.3806124e-39
0.64789653 0.050972182 0.67512518 8.8162076e-39
0.65604019 0.056551084 0.67539644 8.7247323e-39
0.45688555 0.062617965 0.67610669 8.3064685e-39
0.46277502 0.067911834 0.67523968 8.3064685e-39
0.6534912 0.061102863 0.67315215 1.0133235e-38
0.66586965 0.06378869 0.6749047 8.7243721e-39
0.6739803 0.068457998 0.67384541 8.7243721e-39
0.46777189 0.071509838 0.67440629 8.3064685e-39
0.47429514 0.075647257 0.67491275 8.3064685e-39
0.48026434 0.079572596 0.67371684 8.3064685e-39
0.67813444 0.070427075 0.67197305 8.7243721e-39
0.68282872 0.071780674 0.67431849 8.7243721e-39
0.48527327 0.082894258 0.67527002 8.3064699e-39
0.49265319 0.087703772 0.67492324 9.8695385e-39
0.49826419 0.091425344 0.67520541 8.9500639e-39
0.504475 0.095463686 0.67495877 8.3064699e-39
0.51081342 0.099504568 0.67478037 8.3983068e-39
0.515935 0.10268171 0.67569524 9.1341034e-39
0.52421218 0.10736416 0.67520291 8.6741874e-39
0.52957481 0.11022513 0.67334086 8.3064685e-39
0.53547275 0.11346589 0.67536646 8.3064685e-39
0.54191303 0.11689497 0.67393178 8.3064685e-39
0.60693866 0.13539943 0.67464769 6.1529923e-39
0.60591036 0.14508881 0.67479759 1.0042485e-38
0.60706532 0.15163152 0.67432117 1.1708845e-38
0.61218023 0.15523563 0.67540675 1.1708845e-38
0.44437772 0.19607112 0.67503655 1.1706515e-38
0.45296085 0.19222447 0.67424452 1.3089445e-38
0.43705624 0.20556298 0.67541414 1.1522128e-38
0.44160467 0.20065704 0.67437577 1.0600564e-38
0.42888036 0.21800856 0.67572832 7.6532602e-39
0.4321031 0.21319774 0.67511189 6.8235262e-39
0.42660511 0.22508906 0.6749689 7.7461747e-39
0.42693916 0.23214984 0.67499495 8.2049907e-39
0.43287611 0.23759587 0.67354208 6.2696546e-39
0.43860373 0.24196799 0.67424637 7.0986781e-39
0.44218716 0.2445616 0.67456549 8.4808517e-39
0.45747298 -0.41176745 0.68916345 6.2448278e-39
0.45293766 -0.40492639 0.68619984 6.2448278e-39
0.44768408 -0.39611617 0.68463922 6.2448278e-39
0.44196087 -0.38633516 0.68512374 6.7990721e-39
0.43586844 -0.37564388 0.68559039 8.7344447e-39
0.42886758 -0.36305547 0.68563169 1.0759503e-38
0.43214333 -0.36877131 0.68412799 1.0297449e-38
0.424622 -0.35482997 0.68430829 1.0946766e-38
0.41801181 -0.34238613 0.68549556 1.1045777e-38
0.42069167 -0.34748307 0.68488085 1.1043986e-38
0.41396096 -0.3345685 0.68462902 1.0860304e-38
0.40815052 -0.32365686 0.68498999 7.995809e-39
0.41032615 -0.327961 0.68685222 9.3787295e-39
0.40363172 -0.31523407 0.68508083 6.7979959e-39
0.39934546 -0.30288392 0.68408096 6.1529923e-39
0.40040612 -0.30725828 0.68570918 5.6023366e-39
0.63667661 -0.30067185 0.68162805 3.136553e-39
0.64089328 -0.30335727 0.68197942 2.3064098e-39
0.39809227 -0.29461282 0.68491751 6.2448278e-39
0.62672216 -0.29246649 0.68527919 2.8599591e-39
0.63215166 -0.29723579 0.68418384 3.0443559e-39
0.39882204 -0.28816459 0.687895 6.2448278e-39
0.40517214 -0.28410152 0.68517125 7.0749373e-39
0.41070589 -0.28058583 0.68511403 6.5235782e-39
0.61984098 -0.28075701 0.68430436 2.8599577e-39
0.62275708 -0.28584641 0.68544775 2.8599577e-39
0.41556218 -0.27802151 0.68563271 7.9119077e-39
0.42472208 -0.2740314 0.68562889 8.0041033e-39
0.43316931 -0.27122295 0.68506891 6.9859941e-39
0.6169135 -0.27506161 0.68548089 6.3622748e-39
0.43821543 -0.26944739 0.68518615 7.3580179e-39
0.44386974 -0.2677525 0.68514413 6.8008826e-39
0.6077913 -0.26289287 0.68669224 1.0602509e-38
0.61194754 -0.26718551 0.68458968 1.1616651e-38
0.59920973 -0.25114062 0.68441033 1.1155308e-38
0.60315573 -0.25605255 0.68479043 1.1616649e-38
0.59444618 -0.24505801 0.6850428 1.0139354e-38
0.58675539 -0.23501885 0.68500227 8.4780253e-39
0.57775003 -0.22314161 0.68470722 8.2010782e-39
0.58179349 -0.22834615 0.68555146 8.7549737e-39
0.56815559 -0.21166308 0.68400127 9.9549616e-39
0.57302135 -0.21642354 0.68548197 9.5879826e-39
0.55887866 -0.20148119 0.68523282 1.1708845e-38
0.56337762 -0.20636019 0.68497646 1.1339701e-38
0.54769093 -0.19208062 0.68400562 3.1365418e-39
0.55332226 -0.19536501 0.68532896 7.192027e-39
0.54618216 -0.18506384 0.68617433 2.8599577e-39
0.53901398 -0.17288682 0.68667716 2.8599605e-39
0.54134858 -0.17677474 0.68799984 2.8599605e-39
0.53807974 -0.16526121 0.68555588 2.8599577e-39
0.54090565 -0.16055623 0.6853835 2.8599577e-39
0.54526925 -0.15755925 0.68606067 2.8599577e-39
0.55500776 -0.15250994 0.68436176 2.8599577e-39
0.55965215 -0.14969099 0.68877614 2.8599577e-39
0.56554413 -0.1486403 0.68511957 2.8599577e-39
0.57391775 -0.14701025 0.68478137 2.9521519e-39
0.44589517 -0.07139641 0.68401092 6.179275e-39
0.45353734 -0.074478485 0.68097752 7.8409712e-39
0.43756333 -0.06369935 0.68479633 6.8224766e-39
0.44144639 -0.068380348 0.68562776 6.3618586e-39
0.70673901 -0.0632587 0.68633425 8.5597868e-39
0.71188998 -0.067979753 0.68427265 9.2156001e-39
0.43416944 -0.05522598 0.68519986 7.1927053e-39
0.69846773 -0.053297292 0.68516594 8.918487e-39
0.70238203 -0.058058139 0.68570566 7.7267864e-39
0.43746489 -0.046449054 0.68488878 6.6424322e-39
0.44142675 -0.041337851 0.68539184 7.195243e-39
0.6892699 -0.040490355 0.6844843 9.2840283e-39
0.69307852 -0.0459399 0.68511534 9.3776645e-39
0.44642758 -0.037612174 0.68490678 7.1952416e-39
0.45326066 -0.032812074 0.68466485 3.9633779e-39
0.6854316 -0.035039265 0.68467021 9.2843885e-39
0.45880064 -0.028814094 0.68578184 2.5819008e-39
0.46523762 -0.024402389 0.68493813 5.3495466e-39
0.47168225 -0.020960389 0.68451792 8.0242792e-39
0.67728937 -0.023461292 0.68505037 5.9751128e-39
0.68105543 -0.028841939 0.68489319 7.0782052e-39
0.47571015 -0.019018479 0.68627262 8.2083089e-39
0.66866028 -0.011053045 0.68425089 6.250255e-39
0.67232722 -0.016336 0.68523133 5.7003308e-39
0.6644575 -0.0050097285 0.68513268 5.4255488e-39
0.64638156 0.0031552352 0.6887573 1.0227951e-38
0.65739048 0.0056817047 0.68484414 1.0029516e-38
0.66081965 0.00046492415 0.68416876 7.2647558e-39
0.64857483 0.01858785 0.68485814 1.0124231e-38
0.65219283 0.013444214 0.68468648 1.0030597e-38
0.64367026 0.025392175 0.68521661 1.0311142e-38
0.63882506 0.033963587 0.68536431 1.0683528e-38
0.64194542 0.035957512 0.6849336 1.1049436e-38
0.45636171 0.048711568 0.68960184 5.8083247e-39
0.64590812 0.045466796 0.68414623 1.0580529e-38
0.44992733 0.051630303 0.68147582 5.8083247e-39
0.45250335 0.054075807 0.6852476 6.9182119e-39
0.64929748 0.05062937 0.68280053 9.8375622e-39
0.65478736 0.055170462 0.68535417 9.1144025e-39
0.45761031 0.062063526 0.68477523 8.3064685e-39
0.46303165 0.067237467 0.68441677 8.3064685e-39
0.66569871 0.063475378 0.68525195 9.0236474e-39
0.67278957 0.068684936 0.6867975 1.0965158e-38
0.46860966 0.071777716 0.6840052 8.3064685e-39
0.47558579 0.076431677 0.68463653 8.3064685e-39
0.67678046 0.071547441 0.68864304 1.1615568e-38
0.48555723 0.083043031 0.68475652 8.6741846e-39
0.49269643 0.087896325 0.68526834 9.8695371e-39
0.49750668 0.091086745 0.68512011 8.3983082e-39
0.50496262 0.095809244 0.68526155 8.3064685e-39
0.51002002 0.098973937 0.6824007 8.3983054e-39
0.51546794 0.10238429 0.68506688 8.4901479e-39
0.5241093 0.10745195 0.68513024 8.3064685e-39
0.53449881 0.11314487 0.68574512 8.3064685e-39
0.54313564 0.11724816 0.68537676 1.0151792e-38
0.61067092 0.12657958 0.68316638 8.6530713e-39
0.60711843 0.13569131 0.68495893 6.2451879e-39
0.61764956 0.13191554 0.68140161 1.1338623e-38
0.60549891 0.14494286 0.68533051 1.0690374e-38
0.60731542 0.15211144 0.68455046 1.0417747e-38
0.61293507 0.15537536 0.68597072 1.1708845e-38
0.45462042 0.18992147 0.68973416 1.1799087e-38
0.44514671 0.19566369 0.68512017 1.2074933e-38
0.45216644 0.19064228 0.68709391 1.2074941e-38
0.43749079 0.20550516 0.68521476 1.161432e-38
0.4405109 0.20076457 0.68458742 1.1706515e-38
0.42898664 0.21818586 0.68432659 4.9940063e-39
0.4324179 0.21306044 0.68463254 8.0284803e-39
0.42626297 0.22423999 0.68481719 7.3820613e-39
0.42817762 0.2324439 0.68444562 7.0064923e-39
0.43258116 0.23780496 0.68538672 6.3611271e-39
0.43697029 0.24114057 0.68933278 5.9001476e-39
0.44387528 0.2456557 0.68068796 9.7711925e-39
0.45817429 -0.41244829 0.69581938 6.2448278e-39
0.46119469 -0.4168413 0.69885695 6.2448278e-39
0.45335159 -0.40518236 0.69538051 6.2448278e-39
0.43589151 -0.39448333 0.69417995 8.0883648e-39
0.44684824 -0.39537621 0.69423103 6.3373807e-39
0.43822908 -0.38138255 0.6950931 8.7337258e-39
0.44112498 -0.3865512 0.69560444 7.7220962e-39
0.43412164 -0.37412643 0.6952917 1.0113059e-38
0.42819929 -0.36350378 0.6946314 1.0852056e-38
0.43024001 -0.36761203 0.69776124 1.0574393e-38
0.42336234 -0.35470474 0.69591486 1.0948202e-38
0.41795352 -0.3439633 0.69484472 1.1137971e-38
0.42084664 -0.34947261 0.69387507 1.1136542e-38
0.41325608 -0.33484638 0.69524723 1.0674121e-38
0.4079583 -0.32463723 0.69540727 9.0103113e-39
0.41089743 -0.32956296 0.69117701 1.0022298e-38
0.4028174 -0.31493938 0.69556683 6.6139662e-39
0.39948127 -0.30429062 0.69484544 6.1529923e-39
0.40019926 -0.30873039 0.69232899 6.1529923e-39
0.64072448 -0.3036536 0.69472235 2.8599577e-39
0.39815179 -0.29509646 0.69434005 6.2448278e-39
0.62766802 -0.29213068 0.69479203 2.8599577e-39
0.63262564 -0.29732022 0.69618225 2.7677621e-39
0.39843997 -0.28844672 0.69477254 6.2448278e-39
0.40467337 -0.28425342 0.69521713 7.1678532e-39
0.41095111 -0.28052589 0.69459742 7.7267976e-39
0.42184409 -0.2825799 0.69320488 7.541686e-39
0.62358361 -0.28504407 0.69509077 2.8599577e-39
0.41567245 -0.2777034 0.69511068 7.7260745e-39
0.42424831 -0.27321449 0.6956777 8.7449054e-39
0.43352371 -0.27075374 0.69237381 1.0135045e-38
0.61750042 -0.27480307 0.69443452 4.1499636e-39
0.62054402 -0.27965969 0.69727659 2.8599577e-39
0.4366695 -0.26950246 0.69504166 8.098101e-39
0.44366184 -0.26812634 0.6941362 6.3381038e-39
0.60888129 -0.26180995 0.69530898 1.1708845e-38
0.61253017 -0.26680565 0.69520289 1.1616649e-38
0.60361737 -0.25506628 0.69500804 1.1708845e-38
0.59573764 -0.24487987 0.69530642 1.1708845e-38
0.58715272 -0.23395112 0.69472468 1.1708845e-38
0.59117311 -0.23904422 0.6952244 1.1708845e-38
0.57825172 -0.22260194 0.6945473 1.1616649e-38
0.58199555 -0.22728166 0.69525158 1.1708845e-38
0.56908786 -0.21089739 0.69516575 1.1063483e-38
0.57324493 -0.21617398 0.69523168 1.1616649e-38
0.55701256 -0.20185789 0.69164532 6.8163389e-39
0.56413037 -0.20505947 0.69490999 1.023409e-38
0.55495954 -0.1948694 0.69483608 4.242518e-39
0.54738516 -0.18456279 0.69495189 2.8599605e-39
0.55272859 -0.18806168 0.69721651 2.8599577e-39
0.53984064 -0.17090121 0.69411582 2.9521561e-39
0.54284585 -0.17590067 0.69325918 2.9521575e-39
0.53906429 -0.16550033 0.6943568 2.8599591e-39
0.54109919 -0.16302437 0.69401574 2.8599591e-39
0.54612362 -0.1568799 0.69449222 2.8599577e-39
0.55347008 -0.15171334 0.69474459 2.8599577e-39
0.55906171 -0.14989412 0.69829828 2.8599577e-39
0.56510365 -0.14823294 0.69524747 2.8599577e-39
0.57391942 -0.14615104 0.6948427 2.8599577e-39
0.44781977 -0.071960412 0.6950112 7.6562156e-39
0.45228791 -0.073948227 0.69648659 7.7491385e-39
0.43777803 -0.062640965 0.69475883 7.8369887e-39
0.44219065 -0.06804876 0.69519037 8.2061313e-39
0.70771241 -0.062102091 0.69403851 1.2814109e-38
0.71350926 -0.066130355 0.69603133 1.2262016e-38
0.43474668 -0.055017583 0.69476044 7.6533219e-39
0.44217008 -0.050796784 0.69610125 6.7320901e-39
0.69796497 -0.052023567 0.695445 1.2445687e-38
0.70259261 -0.056793869 0.69537723 1.3183614e-38
0.43775567 -0.046567552 0.69525415 5.9963369e-39
0.44128975 -0.041750334 0.69534302 6.0896185e-39
0.68913096 -0.040090583 0.69341493 1.1616285e-38
0.6932919 -0.045458313 0.69542211 1.2169459e-38
0.44627553 -0.037942953 0.69488204 6.0896185e-39
0.45394105 -0.032742914 0.695198 5.4431715e-39
0.6858018 -0.034682475 0.69547349 1.2353493e-38
0.69029307 -0.03899822 0.69968891 1.4473985e-38
0.75019473 -0.032171376 0.69766128 1.8807913e-38
0.4590413 -0.029112896 0.69575828 5.6282831e-39
0.46454599 -0.025240505 0.69513905 5.7204801e-39
0.47103256 -0.020909635 0.69672596 5.9974201e-39
0.67760497 -0.023323152 0.69480371 2.8595989e-39
0.68166661 -0.028139437 0.69680995 6.2708106e-39
0.47552702 -0.01929459 0.69420719 6.6427923e-39
0.66948187 -0.012289266 0.69328064 2.8599591e-39
0.67305309 -0.015697964 0.6962679 2.8599591e-39
0.6657719 -0.0053949393 0.69557536 3.136546e-39
0.65783244 0.0066060564 0.69483024 1.0879083e-38
0.66145158 0.0017818523 0.69642991 9.0355571e-39
0.64910382 0.018890379 0.69347948 1.0878721e-38
0.65292156 0.014292187 0.69576901 1.05103e-38
0.64561838 0.025297865 0.69503456 1.0233714e-38
0.6560604 0.027301757 0.69614041 1.5027888e-38
0.63908511 0.03690346 0.69313854 1.1247865e-38
0.64150643 0.034237187 0.69648707 9.864931e-39
0.45455673 0.049256463 0.69500488 6.1771072e-39
0.64529914 0.045333337 0.69568282 1.1524089e-38
0.65069133 0.049904287 0.69880623 1.0325908e-38
0.70413738 0.045025542 0.69699305 4.889405e-39
0.44999808 0.052732646 0.69441617 5.9934264e-39
0.4518728 0.055170894 0.69572788 7.6579083e-39
0.64939791 0.050847542 0.6927464 1.0233712e-38
0.65521294 0.055057045 0.69531083 9.0337312e-39
0.66137272 0.058704857 0.69734401 8.9429761e-39
0.45668933 0.062743403 0.69468731 8.3061098e-39
0.46217132 0.067801774 0.69506013 8.3064685e-39
0.66595662 0.062666453 0.69468445 9.3117586e-39
0.67487264 0.067311577 0.69521016 1.2354213e-38
0.68282419 0.069732711 0.69736546 1.3276168e-38
0.4674165 0.071386568 0.69450432 8.3064685e-39
0.4746052 0.076133221 0.6950236 8.3064685e-39
0.48031974 0.079932533 0.69695354 8.3064685e-39
0.67814004 0.071516223 0.69098568 1.3736785e-38
0.68478829 0.071613774 0.69536209 1.3736786e-38
0.48492166 0.082882442 0.69446069 8.3064699e-39
0.49284506 0.088101424 0.69529128 8.3983068e-39
0.49807367 0.091458343 0.69417572 8.3064685e-39
0.50462902 0.095639423 0.69488919 8.3064685e-39
0.51120555 0.099707894 0.69604588 8.3064685e-39
0.51571685 0.10277655 0.69489861 8.3061098e-39
0.52480781 0.10767794 0.69489688 8.4901381e-39
0.63544416 0.10642722 0.69803518 1.2354936e-38
0.52961087 0.11033154 0.69378346 8.4901381e-39
0.53463763 0.11288682 0.6936698 9.3202463e-39
0.54112661 0.11450784 0.69118571 1.1997835e-38
0.60759664 0.13490994 0.69493371 1.0690374e-38
0.60584134 0.14467092 0.69544435 1.1616649e-38
0.60710639 0.15171556 0.69633204 1.1708845e-38
0.61269134 0.1552925 0.6975069 1.1801041e-38
0.45420912 0.189733 0.69553411 1.1890913e-38
0.44420385 0.19607453 0.69492048 1.1706515e-38
0.45249915 0.19121373 0.69269532 1.1798709e-38
0.43682635 0.20545608 0.69528043 1.1706515e-38
0.44050676 0.20098333 0.69141698 1.2259321e-38
0.42817631 0.21757795 0.6954118 5.0861991e-39
0.43164539 0.21289107 0.69447452 9.1319272e-39
0.42536312 0.22472495 0.69522667 8.761365e-39
0.42849609 0.2333366 0.69446576 5.9001448e-39
0.43295068 0.23802868 0.69538748 5.2551467e-39
0.43851113 0.2421044 0.69334382 6.2689203e-39
0.44167128 0.24371158 0.69817781 7.743658e-39
0.46496421 -0.42207187 0.70706743 6.2448278e-39
0.45836768 -0.41239372 0.7019043 6.2448278e-39
0.46204013 -0.41780224 0.70442051 6.2448278e-39
0.44931799 -0.40070939 0.70823276 6.5214118e-39
0.45178667 -0.40148392 0.70391327 6.2448278e-39
0.44342443 -0.39167714 0.70731133 7.1685707e-39
0.42979071 -0.38177556 0.70063704 6.2448278e-39
0.43830353 -0.3829565 0.70576543 9.475953e-39
0.44132006 -0.3879852 0.70555216 8.7391138e-39
0.43400306 -0.37529507 0.70501155 9.6560324e-39
0.42738891 -0.36360148 0.70574343 1.0852416e-38
0.43083331 -0.36942428 0.70323658 1.0482556e-38
0.42300433 -0.3552331 0.70477009 1.1040756e-38
0.41766545 -0.34494826 0.70492357 1.113797e-38
0.40845278 -0.33283848 0.70972723 6.2448278e-39
0.4126229 -0.33456698 0.70535946 1.0677352e-38
0.40725806 -0.32480696 0.70532489 9.6646546e-39
0.40209928 -0.31474954 0.70583516 6.8923496e-39
0.39829889 -0.30592224 0.70534265 6.2448278e-39
0.63706011 -0.30085891 0.702434 2.8599577e-39
0.39668429 -0.29289767 0.70567095 6.2448278e-39
0.62846947 -0.29138058 0.70373523 2.8603164e-39
0.63341278 -0.2964569 0.70500672 2.8603164e-39
0.39905307 -0.28951198 0.70140636 6.2448278e-39
0.40502688 -0.28526968 0.70487094 7.0745772e-39
0.41091982 -0.28058454 0.70496136 6.3373849e-39
0.62440675 -0.28510618 0.7052815 2.8606765e-39
0.4158861 -0.27773902 0.704723 7.9122692e-39
0.42506051 -0.27263463 0.705001 7.4487687e-39
0.44741559 -0.27114972 0.70232332 9.1835706e-39
0.61760414 -0.27394351 0.70489073 3.4142021e-39
0.62063283 -0.27901593 0.70456821 2.8610353e-39
0.43358031 -0.26825455 0.70588154 6.2448278e-39
0.44229898 -0.26730219 0.70358515 7.7149188e-39
0.60948402 -0.2608614 0.70363033 1.1708845e-38
0.61274803 -0.265775 0.70538187 1.0512471e-38
0.60523045 -0.25491211 0.70513374 1.0881249e-38
0.59665692 -0.24376446 0.70500559 1.1065279e-38
0.60052925 -0.24899317 0.70406049 1.1341144e-38
0.58802682 -0.23306067 0.70460492 1.124895e-38
0.59221387 -0.23808752 0.70512694 1.1157115e-38
0.57830173 -0.22128387 0.70399171 1.143298e-38
0.58270818 -0.22637822 0.70525223 1.0880889e-38
0.56973302 -0.21065675 0.70368636 3.6893498e-39
0.57389772 -0.21554118 0.70546949 9.0366375e-39
0.5655157 -0.20504099 0.70525533 3.4134846e-39
0.57180816 -0.20499754 0.70144218 2.7864456e-39
0.54631084 -0.19386914 0.70809257 2.7875232e-39
0.55650252 -0.19410259 0.70459372 2.8599577e-39
0.5608989 -0.19913888 0.70590669 2.8603164e-39
0.54815412 -0.18268593 0.70407158 2.8599577e-39
0.55190378 -0.1869317 0.70618767 2.8599577e-39
0.53938359 -0.17111373 0.70221412 2.9517946e-39
0.54389668 -0.17530096 0.70567709 2.8599577e-39
0.53951198 -0.16738951 0.70254225 2.8599577e-39
0.54081261 -0.16388835 0.70572996 2.8599577e-39
0.54459476 -0.15612751 0.70537657 2.8599577e-39
0.55518544 -0.15142886 0.70496851 2.8599577e-39
0.56532323 -0.14854921 0.7041567 2.8599577e-39
0.57479835 -0.14599128 0.7044583 2.8599577e-39
0.58053541 -0.14521828 0.70909476 2.8599577e-39
0.44951701 -0.07100302 0.70158494 6.8253717e-39
0.45383507 -0.071880072 0.70322663 5.7107088e-39
0.43863851 -0.062183373 0.70245481 5.8079645e-39
0.44460747 -0.065424219 0.70613664 5.2479202e-39
0.45475832 -0.068426728 0.70801705 5.796757e-39
0.46405086 -0.063819893 0.70870405 6.4406816e-39
0.47276199 -0.061956514 0.70428324 6.3506524e-39
0.70916271 -0.060148418 0.70072526 1.2815193e-38
0.7148301 -0.06225501 0.70311004 1.2446046e-38
0.72200495 -0.061352421 0.70392579 1.79767e-38
0.43724915 -0.054346479 0.70422554 5.065338e-39
0.44146878 -0.055848069 0.70862877 4.7847728e-39
0.47518823 -0.057754774 0.70825809 6.0726222e-39
0.48365313 -0.052292548 0.708471 6.4410404e-39
0.69950366 -0.051677763 0.70036256 1.4289962e-38
0.705598 -0.054164942 0.70357972 1.4382514e-38
0.71475291 -0.054756269 0.70693964 1.7424973e-38
0.72473532 -0.053879417 0.70650065 1.576509e-38
0.73366445 -0.05176777 0.70602387 1.6226429e-38
0.43828583 -0.047028352 0.70394313 4.1426572e-39
0.44372362 -0.043662112 0.70678484 4.6014676e-39
0.45012516 -0.040784217 0.70950413 4.7847728e-39
0.48968965 -0.049188174 0.70608312 6.7169056e-39
0.49240407 -0.045317322 0.70697463 6.4428494e-39
0.69688547 -0.044629183 0.70197898 1.4474711e-38
0.70549506 -0.044692166 0.70444345 1.843876e-38
0.71542054 -0.045210611 0.70573997 1.5673257e-38
0.72512764 -0.045049217 0.70610708 1.4935692e-38
0.73476154 -0.044250734 0.7064144 1.5673257e-38
0.74424303 -0.042877045 0.70466059 1.7332415e-38
0.75378168 -0.0418671 0.70172995 1.8530959e-38
0.44770348 -0.038672183 0.70373017 4.5125272e-39
0.45506597 -0.034909517 0.70569551 4.5107181e-39
0.4623816 -0.03157432 0.70829183 4.6925786e-39
0.49171624 -0.03665613 0.70943719 6.6250701e-39
0.68841624 -0.032746844 0.70157993 1.2815557e-38
0.6947276 -0.035408083 0.70333081 1.7056189e-38
0.70524746 -0.035303246 0.70499098 1.6779602e-38
0.71575356 -0.034626823 0.705419 1.4935692e-38
0.72532111 -0.035007112 0.70609897 1.5027888e-38
0.73536837 -0.035231251 0.70630032 1.7793395e-38
0.74539024 -0.034639213 0.70657557 1.8991934e-38
0.75402123 -0.034458667 0.7048077 1.8069616e-38
0.46606302 -0.026488485 0.70493126 4.4188868e-39
0.4744949 -0.023200743 0.70626044 4.9698872e-39
0.48350263 -0.024069931 0.70743793 5.5219777e-39
0.67873049 -0.020865535 0.70072824 3.3209512e-39
0.68519968 -0.024291759 0.70292276 7.3775505e-39
0.69494313 -0.025286112 0.70524758 1.668778e-38
0.70536757 -0.025397651 0.70567292 1.539667e-38
0.71563524 -0.024886299 0.70553315 1.5120083e-38
0.72562754 -0.025229296 0.70580864 1.6779602e-38
0.73535746 -0.024655061 0.70646971 1.9084491e-38
0.74472439 -0.025593717 0.70698512 1.889974e-38
0.75180119 -0.027344065 0.7064243 1.8807544e-38
0.47703198 -0.019548684 0.70051754 5.6224901e-39
0.67669797 -0.014190401 0.70259476 3.8748621e-39
0.6848371 -0.015231914 0.70528543 4.5202539e-39
0.69473737 -0.014550823 0.70632619 6.2715996e-39
0.70486903 -0.014838208 0.70616013 1.2723758e-38
0.71525335 -0.015135325 0.70590121 1.5857648e-38
0.72532219 -0.015411958 0.70609802 1.9176328e-38
0.73426133 -0.015039003 0.70708567 1.9360719e-38
0.74408799 -0.015688928 0.70408368 1.7331694e-38
0.66834664 -0.0028190981 0.70129848 3.8744978e-39
0.67443138 -0.0057566948 0.70442438 4.0588988e-39
0.68450159 -0.0054362831 0.70659381 4.8890477e-39
0.69455135 -0.0049700253 0.70651066 4.8890463e-39
0.70466781 -0.005181788 0.70635641 5.2581833e-39
0.71484488 -0.0045096218 0.70629424 1.0972806e-38
0.72470397 -0.0046992847 0.70668435 1.8900113e-38
0.73356724 -0.0054175956 0.70642531 1.7701579e-38
0.74055821 -0.0041842293 0.70283842 1.4751706e-38
0.65931273 0.0092482846 0.70075452 1.097128e-38
0.66562313 0.0052762628 0.70351714 9.2203309e-39
0.67504472 0.0046865931 0.70630258 4.7050095e-39
0.68478823 0.0047298316 0.70646524 4.889405e-39
0.69462377 0.0045981142 0.7064392 4.8890477e-39
0.70465916 0.0044635613 0.70636457 4.8894064e-39
0.71482122 0.0052113938 0.70631689 4.8890449e-39
0.72448874 0.0047938046 0.70648015 8.1158597e-39
0.73184699 0.0037889266 0.70525199 1.0051229e-38
0.64817894 0.015377739 0.7043888 9.1835496e-39
0.65657967 0.016001312 0.70259953 1.3552758e-38
0.66475415 0.014781374 0.70512652 1.6503388e-38
0.6748625 0.015386042 0.70586139 9.313286e-39
0.68510598 0.015088785 0.70614547 4.8894036e-39
0.69470072 0.01503865 0.70636255 4.8890449e-39
0.70462221 0.014985674 0.70640063 4.8894064e-39
0.71487975 0.014930502 0.70626098 4.8890477e-39
0.72303349 0.01300626 0.70595199 4.9812447e-39
0.64738971 0.026751781 0.70176846 1.3827181e-38
0.65531838 0.025246369 0.70350808 1.6779605e-38
0.66451412 0.02540347 0.70514733 1.4843496e-38
0.67470902 0.025429484 0.70566922 1.5027889e-38
0.68528777 0.025456844 0.70596236 1.1617424e-38
0.69464356 0.0254803 0.70641881 6.0875726e-39
0.70448875 0.025506219 0.70653105 4.9812433e-39
0.71350253 0.024411289 0.70619661 5.81099e-39
0.64537179 0.035912693 0.70302308 1.576545e-38
0.65500998 0.035256073 0.70482576 1.5673257e-38
0.66448319 0.035613291 0.70518023 1.5027888e-38
0.67455906 0.035239335 0.70555043 1.5120083e-38
0.68536991 0.034964196 0.70587981 1.7148384e-38
0.69485027 0.035056405 0.70621479 1.7885968e-38
0.70436245 0.034844421 0.70600545 1.097244e-38
0.71230012 0.03348453 0.70383418 1.6871453e-38
0.45493558 0.047904227 0.70383334 7.0075741e-39
0.63340789 0.047077939 0.70105308 1.3368366e-38
0.64708412 0.04302723 0.70229459 1.410557e-38
0.65484673 0.046039991 0.7037065 1.4198126e-38
0.66538459 0.045128826 0.70526713 1.4751301e-38
0.67558569 0.044372726 0.70589393 1.6134234e-38
0.68537068 0.044471417 0.70587999 1.9637303e-38
0.69551849 0.044341289 0.70521748 1.9637298e-38
0.70369875 0.043947015 0.70361865 1.9084132e-38
0.4537009 0.055545457 0.70328665 8.4894402e-39
0.65743399 0.052637652 0.70150638 1.1616649e-38
0.66538262 0.05448981 0.70374006 1.2815193e-38
0.67493445 0.055049203 0.70666039 1.705619e-38
0.68490231 0.054497674 0.70668507 2.0282311e-38
0.69404978 0.054522831 0.70470095 1.991389e-38
0.70015943 0.054427583 0.70218027 2.0375233e-38
0.45564425 0.063299 0.70480156 8.490857e-39
0.46217895 0.068109013 0.70546997 8.3064685e-39
0.66786522 0.0610567 0.70166135 1.0325911e-38
0.67539954 0.063051917 0.70462531 1.4382518e-38
0.68537503 0.065183192 0.70453376 1.6779603e-38
0.69094831 0.063382916 0.70559615 1.8900104e-38
0.46761188 0.071699575 0.70437783 8.3064685e-39
0.47547784 0.076910645 0.70547801 8.3064685e-39
0.48543039 0.083420858 0.70486283 8.3064685e-39
0.49297714 0.088300169 0.70516878 8.3064685e-39
0.49793074 0.09147197 0.70480049 8.3983026e-39
0.50519621 0.095985413 0.70516461 8.6738091e-39
0.51029259 0.099164858 0.70356762 8.5819736e-39
0.51582801 0.10247957 0.70476347 8.6712966e-39
0.52481604 0.10748883 0.70515609 8.5759004e-39
0.63562483 0.10844293 0.7044102 1.521264e-38
0.64142364 0.10965088 0.70629627 1.6410822e-38
0.53495759 0.11305877 0.70423698 8.022742e-39
0.54330027 0.11735323 0.70707327 8.3975907e-39
0.63534671 0.11069532 0.709194 1.6503739e-38
0.64288831 0.11462347 0.70838761 2.0098647e-38
0.60847282 0.13592802 0.70507288 1.1893236e-38
0.61062557 0.13156988 0.70775986 1.1708845e-38
0.60769409 0.14495087 0.70472634 1.2722997e-38
0.61059397 0.14864796 0.70849448 1.3368006e-38
0.60886866 0.15159778 0.70310229 1.3368366e-38
0.61398941 0.15325044 0.70606583 1.3829344e-38
0.44881037 0.18979694 0.70395947 1.2075329e-38
0.45369685 0.18948129 0.70596886 1.2167148e-38
0.43907619 0.19932541 0.70720327 1.1689675e-38
0.44314334 0.19443266 0.70531714 1.169684e-38
0.43550509 0.20500354 0.70497864 1.1697915e-38
0.42797664 0.21611731 0.70532948 1.0419041e-38
0.43117958 0.21160658 0.70563197 1.1706156e-38
0.42492467 0.22450937 0.70521039 1.0232144e-38
0.42752191 0.23240928 0.70502323 5.2551397e-39
0.43265644 0.23762584 0.70667088 5.1629483e-39
0.43611977 0.24011542 0.70108986 4.8867257e-39
0.4669672 -0.42468843 0.71449494 6.2448278e-39
0.4577916 -0.41276404 0.71533006 6.2448278e-39
0.46182746 -0.41789964 0.715496 6.2448278e-39
0.44888306 -0.40170002 0.71640807 6.2448278e-39
0.45378309 -0.40766317 0.71516526 6.2448278e-39
0.4449234 -0.39510459 0.7153827 6.7994365e-39
0.4378643 -0.38270348 0.7141642 8.0915962e-39
0.44128895 -0.3889358 0.71442658 7.9090056e-39
0.43320975 -0.37532842 0.71504891 8.4582207e-39
0.42782831 -0.3655881 0.71529174 1.0761297e-38
0.43415952 -0.36998883 0.71177375 6.2448278e-39
0.41979676 -0.35064727 0.71994972 1.1137618e-38
0.42261311 -0.35557148 0.71438348 1.0949638e-38
0.41701478 -0.3448579 0.71523035 1.0766682e-38
0.40972692 -0.33087987 0.71774971 7.44408e-39
0.41230643 -0.3356663 0.71468681 9.1990115e-39
0.40686485 -0.32505274 0.71515548 8.2745511e-39
0.40197366 -0.31459802 0.71543032 6.3370234e-39
0.39802969 -0.3044326 0.71505338 6.2448278e-39
0.40019518 -0.30923799 0.71874309 6.2448278e-39
0.63803124 -0.30038142 0.71237254 2.0294515e-39
0.39584523 -0.29437149 0.71488315 6.2448278e-39
0.62882203 -0.29028273 0.71019363 2.8660659e-39
0.6338312 -0.29496765 0.71513152 2.6823893e-39
0.39865491 -0.28929746 0.71843439 6.982383e-39
0.40499136 -0.28551343 0.71462286 7.2611307e-39
0.41108671 -0.28094357 0.71391153 9.6722665e-39
0.61749482 -0.28713942 0.71145034 2.7753066e-39
0.62583351 -0.28485623 0.714881 2.7871644e-39
0.41602728 -0.2776266 0.7148273 8.93074e-39
0.4247933 -0.2727187 0.71446133 8.3754068e-39
0.61842644 -0.27340835 0.71432215 2.7878833e-39
0.62153286 -0.27816892 0.71573538 2.7893196e-39
0.43400943 -0.26761958 0.71548516 7.7257172e-39
0.61345792 -0.26518017 0.71510851 3.1580979e-39
0.60653317 -0.25502494 0.71498054 3.2499348e-39
0.61003369 -0.25985658 0.71639609 2.7903986e-39
0.59736711 -0.2428159 0.71500063 3.5258001e-39
0.60151815 -0.24807273 0.71470523 3.7098298e-39
0.58807886 -0.23247167 0.71473259 4.5367038e-39
0.59256929 -0.23680903 0.71512061 3.4339646e-39
0.57890338 -0.22036526 0.71224576 5.4568566e-39
0.5832864 -0.22525707 0.71531355 3.7098298e-39
0.57484519 -0.21491726 0.7149232 3.3399725e-39
0.5667302 -0.20485659 0.7151438 2.7864456e-39
0.57132733 -0.20976283 0.71881545 2.7903986e-39
0.55716479 -0.19333003 0.71486241 2.7846491e-39
0.56140321 -0.19840562 0.71505016 2.785368e-39
0.54926413 -0.18164106 0.71583986 2.7842904e-39
0.55233353 -0.18665835 0.715177 2.7846491e-39
0.54625857 -0.17464294 0.71281981 2.8678624e-39
0.54225951 -0.16433492 0.71450216 2.8631933e-39
0.54624337 -0.15632376 0.71417356 2.9521589e-39
0.55181885 -0.1519139 0.71639538 2.9521589e-39
0.55632287 -0.14925987 0.71593225 2.8599591e-39
0.56523556 -0.14721292 0.7152586 2.8599577e-39
0.57517785 -0.14614552 0.71479213 2.8599577e-39
0.58163196 -0.14553399 0.71508038 2.8599577e-39
0.44800517 -0.061639175 0.71142417 5.0606381e-39
0.45435971 -0.063277245 0.71186066 6.2566519e-39
0.46271807 -0.061125956 0.71094209 6.5328759e-39
0.4460541 -0.0543143 0.71218711 5.520533e-39
0.45472717 -0.054828867 0.71394753 6.2566519e-39
0.4646517 -0.054658905 0.71322876 6.5328759e-39
0.47397268 -0.053310078 0.71186173 6.4406816e-39
0.48093995 -0.051220469 0.71111304 6.5328759e-39
0.44733387 -0.046682797 0.71155727 5.2446678e-39
0.45499653 -0.045107998 0.71315747 5.796757e-39
0.46463019 -0.044793881 0.71431959 6.2566519e-39
0.47461274 -0.044859976 0.71406054 6.4406816e-39
0.48397094 -0.044182897 0.71281689 6.7165469e-39
0.71897572 -0.048581943 0.71614337 1.79767e-38
0.45697594 -0.03877883 0.7111277 5.2446678e-39
0.46549144 -0.03562234 0.71215367 5.7045627e-39
0.47476321 -0.034721609 0.71363914 6.0726222e-39
0.48423386 -0.035482116 0.71320188 6.5325171e-39
0.4686904 -0.028928798 0.71029711 5.1528323e-39
0.47578394 -0.027836461 0.7116434 5.520533e-39
0.48315239 -0.027945545 0.71104741 6.3484874e-39
0.73293388 -0.020694543 0.71043509 1.1525599e-38
0.69002211 0.0077633075 0.7177102 8.7243721e-39
0.66472369 0.022495721 0.71349543 1.0506699e-38
0.45456964 0.048523534 0.71422476 6.730281e-39
0.46040249 0.048310746 0.71140838 7.467846e-39
0.64841443 0.044833705 0.71527588 8.6325366e-39
0.45240918 0.055215187 0.71535563 7.1962211e-39
0.45585436 0.062909707 0.71473444 8.3064685e-39
0.46346831 0.068223171 0.71470809 8.3064685e-39
0.46813124 0.071274355 0.71483481 8.3064685e-39
0.4743669 0.075792886 0.71499491 8.3983026e-39
0.48462582 0.083133474 0.71524793 8.7649271e-39
0.49261531 0.088247947 0.71504492 8.3936391e-39
0.49754533 0.091234438 0.71446562 8.7617097e-39
0.50541133 0.096005775 0.71480381 9.0358191e-39
0.51174223 0.099849872 0.71761477 1.1155661e-38
0.51525784 0.10197148 0.71428561 9.6801502e-39
0.52378798 0.10686585 0.71510607 1.0418102e-38
0.52951491 0.11014687 0.71739852 8.8507805e-39
0.53490686 0.1132575 0.71456677 8.3926343e-39
0.54297537 0.11740034 0.71602696 6.3671611e-39
0.63576245 0.11365716 0.71178341 1.9084495e-38
0.6402176 0.1174669 0.71245724 1.9453278e-38
0.61308563 0.12986371 0.71420008 1.1893236e-38
0.61252189 0.13543284 0.71482545 1.1985432e-38
0.61475039 0.14486375 0.71356243 1.5027888e-38
0.62221318 0.14661613 0.71668303 1.4290323e-38
0.61887187 0.15102102 0.71141255 1.5673257e-38
0.62233245 0.15046504 0.71244574 1.5857648e-38
0.4546057 0.18976805 0.71515721 1.2627739e-38
0.43938035 0.19892798 0.71315885 1.1685735e-38
0.44436532 0.19390121 0.71570033 1.3442082e-38
0.45218065 0.19089527 0.71760076 1.5299939e-38
0.43556926 0.20497964 0.71548873 1.1783303e-38
0.44037026 0.20002073 0.71959805 1.214599e-38
0.42771372 0.21640091 0.71552926 1.1706515e-38
0.43098038 0.21167263 0.71615565 1.1798709e-38
0.425686 0.22474055 0.715065 1.0416172e-38
0.42828748 0.23222445 0.71348614 6.4533171e-39
0.4328616 0.23645253 0.71608788 7.8358522e-39
0.43896061 0.24162711 0.71431619 7.9276793e-39
0.44350812 0.24410529 0.71722043 1.0415814e-38
0.44775668 -0.40106738 0.72795892 6.2448278e-39
0.44435608 -0.39520442 0.72425407 6.3377422e-39
0.43746686 -0.3841345 0.72533262 6.2448292e-39
0.44036365 -0.38926148 0.72943985 6.2448278e-39
0.43224481 -0.37491369 0.72486132 9.0113945e-39
0.42704245 -0.3650417 0.7251097 1.0212791e-38
0.41919526 -0.35025173 0.72837484 1.0123472e-38
0.4221473 -0.35561877 0.72451365 9.1075348e-39
0.41677463 -0.34517211 0.72487438 1.0583724e-38
0.40957287 -0.33123219 0.72677231 8.5489814e-39
0.41225305 -0.33630452 0.72441125 9.1025083e-39
0.40630451 -0.3246814 0.72520649 6.6136075e-39
0.41185606 -0.32400376 0.72770107 6.3373821e-39
0.40254661 -0.31527025 0.72460985 6.2448278e-39
0.39876607 -0.30399024 0.7243759 6.2448278e-39
0.40052971 -0.30928224 0.72496879 6.2448278e-39
0.39571601 -0.29395545 0.72446913 6.2448278e-39
0.63512969 -0.29458943 0.72505957 2.5894734e-39
0.64124715 -0.29876721 0.72931772 1.5684636e-39
0.3978391 -0.28869027 0.72571737 7.6281027e-39
0.40503368 -0.28431702 0.72463942 6.9852697e-39
0.41100809 -0.28076169 0.7246685 8.7456284e-39
0.62665176 -0.28367591 0.7254011 2.7903986e-39
0.63072288 -0.28904742 0.72616071 2.7900399e-39
0.41607228 -0.27777487 0.72450292 8.6530727e-39
0.42503947 -0.27269182 0.72477788 6.5228552e-39
0.61910391 -0.27220657 0.72437072 2.7903986e-39
0.62224144 -0.27705276 0.72494334 2.7903986e-39
0.43409523 -0.26760107 0.72566563 6.2448278e-39
0.61481696 -0.26534247 0.72490722 2.7903986e-39
0.60720217 -0.25439596 0.72457981 2.7903986e-39
0.61097598 -0.2593188 0.72729892 2.7903986e-39
0.59833813 -0.24253125 0.72516936 2.7903986e-39
0.60218334 -0.24742231 0.72490686 2.7900399e-39
0.58925128 -0.23123577 0.72426766 2.7903986e-39
0.59327644 -0.23612195 0.72524703 2.7903986e-39
0.58432597 -0.22483264 0.7251026 2.7903986e-39
0.57599211 -0.21436471 0.72466397 2.7903986e-39
0.58039075 -0.21936297 0.7273128 2.7903986e-39
0.5669961 -0.20316505 0.72425771 2.7903986e-39
0.57123655 -0.20796153 0.726394 2.7903986e-39
0.5581044 -0.19250655 0.72466046 2.7903986e-39
0.562298 -0.1973037 0.72518802 2.7903986e-39
0.54887265 -0.18174794 0.72384059 2.7903986e-39
0.55296606 -0.18635836 0.72561812 2.7903986e-39
0.5362072 -0.17039327 0.72327542 2.8621143e-39
0.54505259 -0.17458838 0.72531378 2.7911203e-39
0.54366851 -0.16569901 0.72447491 2.8790055e-39
0.54596555 -0.15529872 0.72609389 2.8613954e-39
0.55337936 -0.15072075 0.72002673 2.8599577e-39
0.55437922 -0.14845775 0.7253387 2.8599577e-39
0.5663467 -0.1465221 0.72460532 2.8599577e-39
0.57732671 -0.14566056 0.72610933 2.8599577e-39
0.47996625 -0.051123474 0.72330564 6.4406816e-39
0.45461449 0.04856731 0.72440064 5.9005203e-39
0.45273381 0.054965165 0.72512615 7.1958638e-39
0.45636544 0.062490914 0.72496206 8.3064685e-39
0.46275949 0.067770965 0.72516787 8.6734489e-39
0.46836346 0.071383454 0.72577775 8.3003658e-39
0.47478175 0.07593257 0.72482741 8.6680932e-39
0.48041302 0.079857334 0.72774899 1.0602122e-38
0.48540598 0.083461046 0.72478187 9.311711e-39
0.49439275 0.088101596 0.72509223 1.0695388e-38
0.49827316 0.091549665 0.7264263 1.1432257e-38
0.50464219 0.095658176 0.72467035 1.0879083e-38
0.51074725 0.099301264 0.72497225 1.0694693e-38
0.51664084 0.10266223 0.72516489 8.7589464e-39
0.52548069 0.10768164 0.72479844 7.7444329e-39
0.53507137 0.11305646 0.72477967 7.9320135e-39
0.54405892 0.11620984 0.72670901 9.5982667e-39
0.60602474 0.13441351 0.72408634 1.3453359e-38
0.616238 0.13493605 0.7255494 1.1971028e-38
0.620004 0.13890284 0.72933257 1.1578481e-38
0.61809546 0.14100625 0.72189832 1.1893236e-38
0.62466258 0.14263478 0.72447211 1.3453359e-38
0.44586018 0.19707476 0.72329128 1.5103011e-38
0.45472535 0.19551402 0.72341478 1.9356842e-38
0.46320379 0.19790013 0.72264761 1.9724543e-38
0.43762013 0.20696726 0.72267592 1.3991664e-38
0.44479772 0.20479521 0.72599858 1.7688389e-38
0.4550288 0.20492207 0.72705626 1.9910007e-38
0.46457458 0.20515905 0.72553551 2.0647202e-38
0.4724223 0.20626169 0.72134757 2.0831238e-38
0.4286817 0.21845876 0.72130769 1.2904681e-38
0.4345068 0.21528618 0.72457719 1.5946373e-38
0.44468382 0.21488123 0.72760743 1.9172453e-38
0.45484391 0.21482946 0.72826934 1.9817813e-38
0.46453819 0.21493438 0.72730517 2.0555008e-38
0.47209287 0.21330838 0.72381359 2.0463182e-38
0.42794281 0.22446042 0.72251981 1.3826623e-38
0.43478918 0.2251837 0.72611088 1.7789899e-38
0.44465271 0.22486746 0.72794211 1.9265006e-38
0.45492414 0.22479574 0.72805864 2.0002202e-38
0.46299511 0.22418441 0.72645164 2.0278784e-38
0.42948297 0.23098418 0.72180581 1.2074934e-38
0.43572569 0.23408589 0.72391641 1.4932242e-38
0.44469702 0.23504707 0.72692561 1.7605512e-38
0.45391273 0.23424718 0.72731984 1.9725619e-38
0.46092746 0.23274483 0.72460794 2.0370978e-38
0.4458828 0.24201095 0.72375327 1.4563822e-38
0.45152438 0.24059667 0.72595763 1.8435258e-38
0.45456424 -0.41324466 0.73953974 6.2448278e-39
0.44828892 -0.40250883 0.73490506 6.2448278e-39
0.45030731 -0.40608689 0.7374317 6.2448278e-39
0.44355607 -0.39472193 0.73404676 6.2448278e-39
0.43719673 -0.38439056 0.73548955 6.2448278e-39
0.44027048 -0.3896665 0.73924029 6.2448278e-39
0.42971885 -0.37124649 0.73370904 7.9057714e-39
0.43242592 -0.37619099 0.73543006 7.5366344e-39
0.42606211 -0.36452594 0.7355032 8.4625269e-39
0.41938138 -0.35114017 0.73378712 7.7238941e-39
0.42173412 -0.35598907 0.73499149 6.7994323e-39
0.40870929 -0.34391636 0.73751944 8.8291542e-39
0.41630208 -0.34505126 0.73498923 8.9245756e-39
