# .PCD v0.7 - Point Cloud Data file format
VERSION 0.7
FIELDS x y z rgb
SIZE 4 4 4 4
TYPE F F F F
COUNT 1 1 1 1
WIDTH 1016
HEIGHT 1
VIEWPOINT 0 0 0 1 0 0 0
POINTS 1016
DATA ascii
0.33498874 0.39509207 0.60984975 1.0510302e-38
0.34536725 0.39500195 0.60999864 1.0602497e-38
0.35506606 0.3948791 0.60999864 1.0602497e-38
0.36514723 0.39505196 0.60999864 1.0602497e-38
0.37533453 0.39492226 0.6099987 1.0602497e-38
0.38496771 0.3949827 0.60999864 1.0602497e-38
0.39476734 0.39500082 0.60987735 1.0602497e-38
0.40484208 0.395143 0.60999876 1.0602497e-38
0.41490477 0.3948133 0.60999876 1.0602497e-38
0.42529577 0.39505523 0.60999882 1.0602497e-38
0.43500993 0.39512384 0.60999882 1.0602497e-38
0.44501862 0.39493582 0.60999882 1.0602497e-38
0.45499176 0.39500272 0.60999912 1.0602497e-38
0.46527106 0.39506727 0.60999918 1.0602497e-38
0.47487974 0.39497069 0.6097886 1.0602497e-38
0.48455581 0.39490843 0.6099993 1.0694693e-38
0.49534562 0.39510956 0.6099993 1.0694693e-38
0.50540787 0.39502898 0.60999954 1.0694693e-38
0.51484013 0.39507952 0.60984135 1.0694693e-38
0.52510214 0.39484704 0.60999954 1.0694693e-38
0.53567237 0.39514726 0.60999978 1.0694693e-38
0.54544348 0.39510211 0.60999984 1.0694693e-38
0.55537021 0.39472157 0.60999984 1.0694693e-38
0.56342161 0.39497387 0.6099999 1.0694693e-38
0.32999846 0.40519097 0.60420245 0
0.33511388 0.40498218 0.60999846 1.0602497e-38
0.34531161 0.40496862 0.60999864 1.0602497e-38
0.35515049 0.40493256 0.60999864 1.0602497e-38
0.36514723 0.40500006 0.60999864 1.0602497e-38
0.37533471 0.40496531 0.6099987 1.0602497e-38
0.384913 0.40499604 0.6099987 1.0602497e-38
0.39484271 0.40509462 0.60999876 1.0602497e-38
0.40468687 0.40496531 0.60999876 1.0602497e-38
0.41490543 0.40491065 0.60999876 1.0602497e-38
0.42537612 0.4050661 0.60999882 1.0602497e-38
0.43505141 0.40496084 0.60999888 1.0602497e-38
0.44478598 0.40498826 0.60999882 1.0602497e-38
0.45503578 0.4050124 0.60999906 1.0602497e-38
0.46524924 0.40504435 0.60999918 1.0602497e-38
0.47494173 0.40501484 0.60999936 1.0602497e-38
0.48464975 0.40491891 0.6099993 1.0602497e-38
0.49532118 0.40507796 0.60999936 1.0602497e-38
0.50546575 0.40499634 0.60999948 1.0602497e-38
0.5147053 0.40503031 0.6099996 1.0602497e-38
0.52520233 0.40492705 0.6099999 1.0602497e-38
0.53567237 0.4050363 0.60999978 1.0602497e-38
0.54544348 0.40506941 0.60999984 1.0602497e-38
0.55537015 0.40476805 0.60999984 1.0602497e-38
0.56342161 0.40508467 0.6099999 1.0602497e-38
0.32999843 0.4151029 0.60405117 0
0.33494937 0.41499597 0.6099984 1.0602497e-38
0.34539509 0.41493064 0.60999864 1.0602497e-38
0.35523576 0.41498843 0.60999864 1.0602497e-38
0.36514723 0.41494811 0.60999864 1.0602497e-38
0.37533465 0.41500831 0.6099987 1.0602497e-38
0.38496763 0.41500658 0.6099987 1.0602497e-38
0.39468196 0.4150061 0.6099987 1.0602497e-38
0.40470794 0.41491652 0.60999876 1.0602497e-38
0.41490442 0.41500339 0.60999876 1.0602497e-38
0.4252153 0.41506901 0.60999882 1.0602497e-38
0.43503076 0.41493195 0.60999882 1.0602497e-38
0.44497722 0.4150455 0.60999882 1.0602497e-38
0.45501372 0.41490197 0.609999 1.0602497e-38
0.46522552 0.41501403 0.60999918 1.0602497e-38
0.47477749 0.41504997 0.60999936 1.0602497e-38
0.48446217 0.41492057 0.6099993 1.0602497e-38
0.49534631 0.41504055 0.60999936 1.0602497e-38
0.50540769 0.41512814 0.60999948 1.0602497e-38
0.51470524 0.41491389 0.6099996 1.0602497e-38
0.52497363 0.41513675 0.6099999 1.0602497e-38
0.53567243 0.41492549 0.60999978 1.0602497e-38
0.54544342 0.41503647 0.60999984 1.0602497e-38
0.55537021 0.4148145 0.60999984 1.0602497e-38
0.56342161 0.41519535 0.6099999 1.0602497e-38
0.28829861 0.42978793 0.60671228 2.3048907e-39
0.29464507 0.42976874 0.60517693 1.4751301e-39
0.30484447 0.42976496 0.60522991 1.4751301e-39
0.315189 0.42975542 0.60529506 1.751717e-39
0.32730779 0.42766002 0.60465807 8.2976067e-40
0.33501804 0.42500806 0.60999846 1.0602497e-38
0.34525785 0.42499188 0.60999864 1.0602497e-38
0.35509405 0.42504376 0.60999864 1.0602497e-38
0.36514717 0.42489633 0.60999864 1.0602497e-38
0.37533459 0.42505148 0.60999864 1.0602497e-38
0.38502243 0.42501879 0.6099987 1.0602497e-38
0.39477921 0.42502061 0.60999876 1.0602497e-38
0.40482134 0.42498711 0.60999876 1.0602497e-38
0.41503891 0.42498925 0.60999876 1.0602497e-38
0.42540127 0.42495829 0.60992616 1.0602497e-38
0.43500948 0.42490265 0.60999882 1.0602497e-38
0.44495645 0.42509729 0.60999888 1.0602497e-38
0.45501393 0.42491716 0.60999906 1.0602497e-38
0.46542579 0.4249942 0.60999918 1.0602497e-38
0.47488695 0.42507783 0.6099993 1.0602497e-38
0.48455581 0.42493096 0.6099993 1.0602497e-38
0.49542451 0.42489323 0.60975105 1.0602497e-38
0.50528914 0.42509836 0.60999948 1.0602497e-38
0.51458466 0.42496094 0.60999978 1.0602497e-38
0.52510202 0.42507783 0.60999978 1.0602497e-38
0.53567225 0.42497945 0.60999984 1.0602497e-38
0.54544359 0.42500368 0.60999978 1.0602497e-38
0.55537015 0.42486086 0.60999984 1.0602497e-38
0.56342161 0.42530614 0.6099999 1.0602497e-38
0.28760374 0.43516898 0.60999846 1.0694693e-38
0.29452828 0.43496686 0.60999835 1.0694693e-38
0.30464622 0.43498522 0.6099984 1.0694693e-38
0.31499216 0.43500438 0.60999835 1.0694693e-38
0.32483855 0.43491441 0.60999852 1.0694693e-38
0.33503023 0.43493453 0.60999835 1.0602497e-38
0.34533957 0.43495443 0.60999864 1.0602497e-38
0.35517892 0.4351002 0.60999852 1.0602497e-38
0.36511832 0.43494684 0.60999852 1.0602497e-38
0.37533468 0.43509448 0.60999864 1.0602497e-38
0.38496765 0.43503165 0.60999858 1.0602497e-38
0.39481139 0.43503529 0.60999852 1.0602497e-38
0.40474576 0.43506119 0.60999876 1.0602497e-38
0.41490498 0.43497333 0.60999864 1.0602497e-38
0.42527488 0.43496507 0.60999876 1.0602497e-38
0.43499008 0.43486634 0.60999882 1.0602497e-38
0.44491431 0.43502966 0.60999882 1.0602497e-38
0.45501384 0.43493241 0.60999906 1.0602497e-38
0.46511617 0.43508971 0.60999912 1.0602497e-38
0.47472253 0.43510911 0.6099993 1.0602497e-38
0.48461223 0.43501335 0.60982966 1.0602497e-38
0.49534568 0.4349719 0.60999936 1.0602497e-38
0.50553828 0.43513441 0.60984874 1.0602497e-38
0.51476568 0.43500417 0.60999978 1.0602497e-38
0.52512771 0.43501642 0.60999966 1.0602497e-38
0.53567243 0.43503326 0.60999978 1.0602497e-38
0.54544359 0.4349708 0.60999978 1.0602497e-38
0.55537021 0.43490744 0.60999984 1.0602497e-38
0.56354076 0.4351424 0.6099999 1.0602497e-38
0.75811392 0.43853366 0.60543728 1.0694693e-38
0.28760359 0.4450534 0.60999846 1.0694693e-38
0.29437199 0.44500142 0.6099984 1.0694693e-38
0.30463564 0.44495571 0.6099984 1.0694693e-38
0.31505883 0.44499505 0.6099984 1.0694693e-38
0.32492 0.44505334 0.60991955 1.0602497e-38
0.3350063 0.44494942 0.60999846 1.0602497e-38
0.34536701 0.44491667 0.60999864 1.0602497e-38
0.3551507 0.44505689 0.60999858 1.0602497e-38
0.36514738 0.4449954 0.60999864 1.0602497e-38
0.37533477 0.44513765 0.6099987 1.0602497e-38
0.38494962 0.44504556 0.60999864 1.0602497e-38
0.39481115 0.44494724 0.60999858 1.0602497e-38
0.40476424 0.4450081 0.6099987 1.0602497e-38
0.41490564 0.44507059 0.60999864 1.0602497e-38
0.42525578 0.44484338 0.60999882 1.0602497e-38
0.43507189 0.4449659 0.6099987 1.0602497e-38
0.44495651 0.44495371 0.6099987 1.0602497e-38
0.45501393 0.44494766 0.60999882 1.0602497e-38
0.46531612 0.44507143 0.60999918 1.0602497e-38
0.47483197 0.44513786 0.60999936 1.0602497e-38
0.48457986 0.44507548 0.6099993 1.0602497e-38
0.49532098 0.44493952 0.6099993 1.0602497e-38
0.50534827 0.44503409 0.60999948 1.0602497e-38
0.51464492 0.44505021 0.6099996 1.0602497e-38
0.52502477 0.4450947 0.6099999 1.0602497e-38
0.53567243 0.44492242 0.60999978 1.0602497e-38
0.54544353 0.444938 0.60999984 1.0602497e-38
0.55537015 0.44495383 0.60999984 1.0602497e-38
0.56342161 0.44496685 0.6099999 1.0602497e-38
0.28565192 -0.44516325 0.61068666 1.1063476e-38
0.41588753 -0.44071317 0.6181674 1.097128e-38
0.6461969 -0.44388831 0.61000061 1.097128e-38
0.6546908 -0.44501221 0.61000067 1.097128e-38
0.66507143 -0.4448452 0.6101197 1.097128e-38
0.67489237 -0.44504797 0.61000073 1.1063476e-38
0.68438917 -0.44486064 0.61000073 1.1063476e-38
0.69413573 -0.4451513 0.61000085 1.1063476e-38
0.70400953 -0.44495702 0.61000091 1.1063476e-38
0.71445203 -0.4450112 0.61000109 1.1063476e-38
0.72443724 -0.44504687 0.61000115 1.1063476e-38
0.73487568 -0.44486457 0.61000127 1.1063476e-38
0.74528408 -0.44491628 0.61000139 1.1063476e-38
0.75474197 -0.44517568 0.61000144 1.1063476e-38
0.76427108 -0.44488341 0.6100015 1.1063476e-38
0.77517116 -0.44516748 0.61000156 1.1063476e-38
0.78489763 -0.44494438 0.61000156 1.1063476e-38
0.79475909 -0.44488469 0.61000156 1.1063476e-38
0.80474603 -0.44515696 0.61000168 1.1063476e-38
0.81479722 -0.44483495 0.61000162 1.1063476e-38
0.8251316 -0.44537529 0.61000186 1.1063476e-38
0.83403808 -0.44469151 0.61000192 1.1063476e-38
0.84464467 -0.44523901 0.61000186 1.1063476e-38
0.85522932 -0.4449077 0.61000198 1.1063476e-38
0.86449146 -0.44490281 0.61000216 1.1063476e-38
0.63811529 -0.43288651 0.61000055 1.097128e-38
0.64438945 -0.4347038 0.61000061 1.097128e-38
0.65469152 -0.43507561 0.61000067 1.097128e-38
0.66525286 -0.43499365 0.61000067 1.097128e-38
0.67467421 -0.43497455 0.61000073 1.097128e-38
0.68444771 -0.43494576 0.61000085 1.097128e-38
0.69435996 -0.43491486 0.61000085 1.1063476e-38
0.70424736 -0.43513843 0.61000091 1.1063476e-38
0.71415514 -0.43487597 0.61000121 1.1063476e-38
0.72468293 -0.43508485 0.61000127 1.1063476e-38
0.73481321 -0.43505025 0.61000133 1.1063476e-38
0.7454046 -0.43479294 0.61000144 1.1063476e-38
0.7545743 -0.4351415 0.61000144 1.1063476e-38
0.76420641 -0.43486795 0.6100015 1.1063476e-38
0.77497417 -0.43508467 0.6100015 1.1063476e-38
0.78489769 -0.43504447 0.61000156 1.1063476e-38
0.79475915 -0.43491918 0.61000162 1.1063476e-38
0.80474603 -0.4351249 0.61000168 1.1063476e-38
0.81487381 -0.43499851 0.61000168 1.1063476e-38
0.8251316 -0.43520758 0.61000186 1.1063476e-38
0.83377236 -0.43500268 0.6103729 1.1063476e-38
0.84456474 -0.43518862 0.61000186 1.1063476e-38
0.85500991 -0.43487096 0.61000198 1.1063476e-38
0.86449176 -0.43482074 0.6100021 1.1063476e-38
0.32848808 -0.42021361 0.61515707 0
0.38747483 -0.42452312 0.61068517 1.1155671e-38
0.62953228 -0.42039865 0.61000049 1.097128e-38
0.63550979 -0.4246994 0.61000061 1.097128e-38
0.64418101 -0.42485505 0.61000061 1.097128e-38
0.65452474 -0.42495593 0.61000067 1.097128e-38
0.66525358 -0.42497987 0.61000067 1.097128e-38
0.67489249 -0.42487916 0.61000067 1.097128e-38
0.68450499 -0.42502961 0.61000079 1.097128e-38
0.69407183 -0.4249258 0.61000091 1.097128e-38
0.70430177 -0.42505836 0.61000097 1.1063476e-38
0.71427053 -0.42496952 0.61000103 1.1063476e-38
0.72438157 -0.42487857 0.61000133 1.1063476e-38
0.73506254 -0.42501396 0.61000133 1.1063476e-38
0.7454046 -0.42515594 0.61000133 1.1063476e-38
0.75490993 -0.42481902 0.61000144 1.1063476e-38
0.76420635 -0.42510572 0.6100015 1.1063476e-38
0.77523667 -0.42476881 0.61000156 1.1063476e-38
0.78489763 -0.42514455 0.61000156 1.1063476e-38
0.79475933 -0.42495361 0.61000162 1.1063476e-38
0.80474609 -0.42509285 0.61000168 1.1063476e-38
0.8148737 -0.42489904 0.61000168 1.1063476e-38
0.8251316 -0.42503986 0.6100018 1.1063476e-38
0.83425122 -0.42527419 0.61000198 1.1063476e-38
0.84456462 -0.42489153 0.61000186 1.1063476e-38
0.85544842 -0.42522258 0.61000204 1.1063476e-38
0.86449128 -0.42473868 0.61000216 1.1063476e-38
0.35251942 -0.4121792 0.61134744 1.1155671e-38
0.62828851 -0.4136883 0.61000055 1.097128e-38
0.63522047 -0.41493151 0.61000055 1.097128e-38
0.64438945 -0.41498172 0.61000061 1.097128e-38
0.65486366 -0.41502461 0.61000067 1.097128e-38
0.66525292 -0.41496599 0.61000067 1.097128e-38
0.67467421 -0.41480893 0.61000079 1.097128e-38
0.68455786 -0.41509059 0.61000073 1.097128e-38
0.69430643 -0.41517329 0.61000091 1.097128e-38
0.70407432 -0.41477308 0.61000085 1.097128e-38
0.71438599 -0.41506055 0.61000103 1.097128e-38
0.72439414 -0.41480976 0.61038315 1.097128e-38
0.73468924 -0.41496781 0.61000133 1.1063476e-38
0.74534118 -0.41527057 0.61000133 1.1063476e-38
0.75474197 -0.41478497 0.61000144 1.1063476e-38
0.76414138 -0.41509211 0.6100015 1.1063476e-38
0.77517116 -0.41467935 0.61000156 1.1063476e-38
0.78489769 -0.41524464 0.61000156 1.1063476e-38
0.79475939 -0.4149881 0.61000156 1.1063476e-38
0.80474609 -0.41506082 0.61000168 1.1063476e-38
0.81487358 -0.41479954 0.61000162 1.1063476e-38
0.82513165 -0.41487211 0.6100018 1.1063476e-38
0.8340382 -0.41537407 0.61000192 1.1063476e-38
0.84448534 -0.41484317 0.61000186 1.1063476e-38
0.85522926 -0.41518593 0.61000198 1.1063476e-38
0.86449093 -0.41500431 0.6100021 1.1063476e-38
0.62628156 -0.40444472 0.61000055 1.097128e-38
0.63527399 -0.40490082 0.61000055 1.097128e-38
0.64418101 -0.40513599 0.61000061 1.097128e-38
0.65452468 -0.40508538 0.61000067 1.097128e-38
0.66525364 -0.40495223 0.61000067 1.097128e-38
0.67472595 -0.4049412 0.61000079 1.097128e-38
0.68433672 -0.40495127 0.61000085 1.097128e-38
0.69436002 -0.40516368 0.61000085 1.097128e-38
0.70418799 -0.40493545 0.61000091 1.097128e-38
0.71408951 -0.40493247 0.61000109 1.097128e-38
0.72443724 -0.40515754 0.61000127 1.097128e-38
0.73493767 -0.40492994 0.61000127 1.1063476e-38
0.74559426 -0.40515742 0.61000139 1.1063476e-38
0.75474209 -0.40508574 0.61000144 1.1063476e-38
0.76420629 -0.40509376 0.6100015 1.1063476e-38
0.77517134 -0.40484419 0.6100015 1.1063476e-38
0.78489769 -0.40534481 0.61000156 1.1063476e-38
0.79475921 -0.40502253 0.61000156 1.1063476e-38
0.80474609 -0.40502879 0.61000168 1.1063476e-38
0.81510329 -0.40495017 0.61000168 1.1063476e-38
0.82513195 -0.40504327 0.61000186 1.1063476e-38
0.83403808 -0.40514702 0.61000186 1.1063476e-38
0.84480333 -0.40506762 0.61000186 1.1063476e-38
0.85522956 -0.40516335 0.61000204 1.1063476e-38
0.86449128 -0.40526983 0.61000216 1.1063476e-38
0.41443908 -0.39962783 0.61189789 1.0879084e-38
0.61746264 -0.39304653 0.61000043 1.097128e-38
0.62506676 -0.39505526 0.61000055 1.097128e-38
0.63506824 -0.39512321 0.61000061 1.097128e-38
0.64423543 -0.39503881 0.61000061 1.097128e-38
0.65477413 -0.39496902 0.61000067 1.097128e-38
0.66525292 -0.39493844 0.61000067 1.097128e-38
0.67478377 -0.3950938 0.61000073 1.097128e-38
0.68438917 -0.39501396 0.61000079 1.097128e-38
0.69413579 -0.39495429 0.61000085 1.097128e-38
0.70430189 -0.39509547 0.61000085 1.097128e-38
0.71433085 -0.3950367 0.61000097 1.097128e-38
0.72449917 -0.39495465 0.61000121 1.097128e-38
0.73487568 -0.39511648 0.61000127 1.097128e-38
0.74521536 -0.39504278 0.61000139 1.1063476e-38
0.75474185 -0.39506328 0.61000144 1.1063476e-38
0.76440102 -0.39508402 0.6100015 1.1063476e-38
0.77517134 -0.39500904 0.6100015 1.1063476e-38
0.78472292 -0.39510769 0.61000156 1.1063476e-38
0.79475927 -0.39505693 0.61000162 1.1063476e-38
0.80474597 -0.39499679 0.61000168 1.1063476e-38
0.8148737 -0.39510423 0.61000168 1.1063476e-38
0.82513165 -0.3952145 0.6100018 1.1063476e-38
0.83391267 -0.39508235 0.61030281 1.1063476e-38
0.84456474 -0.39502895 0.61000186 1.1063476e-38
0.85522926 -0.39514095 0.61000198 1.1063476e-38
0.86449176 -0.39518777 0.6100021 1.1063476e-38
0.6066947 -0.38306215 0.61000031 1.097128e-38
0.61510801 -0.38491258 0.61000049 1.097128e-38
0.62491274 -0.38498443 0.61000055 1.097128e-38
0.63512212 -0.38509402 0.61000061 1.097128e-38
0.64428478 -0.38496029 0.61000061 1.097128e-38
0.65450341 -0.38518468 0.61010015 1.097128e-38
0.66525352 -0.38492459 0.61000067 1.097128e-38
0.67478293 -0.38501021 0.61000079 1.097128e-38
0.68444771 -0.385097 0.61000085 1.097128e-38
0.69418889 -0.38494629 0.61000091 1.097128e-38
0.70407432 -0.38481495 0.61000085 1.097128e-38
0.71420991 -0.38512275 0.61000115 1.097128e-38
0.72455966 -0.38475043 0.61000127 1.097128e-38
0.73481321 -0.3853043 0.61000127 1.097128e-38
0.74546748 -0.38492781 0.61000139 1.097128e-38
0.75474197 -0.38504079 0.61000144 1.097128e-38
0.7640124 -0.38484082 0.6100015 1.1063476e-38
0.77517128 -0.38517389 0.61000156 1.1063476e-38
0.78489769 -0.38488623 0.61000156 1.1063476e-38
0.79475933 -0.38509139 0.61000162 1.1063476e-38
0.80474627 -0.38496479 0.61000168 1.1063476e-38
0.8148737 -0.38500479 0.61000162 1.1063476e-38
0.82513165 -0.38504681 0.61000186 1.1063476e-38
0.83403838 -0.38503382 0.61000198 1.1063476e-38
0.8443253 -0.38499489 0.61000186 1.1063476e-38
0.85522932 -0.38477284 0.61000198 1.1063476e-38
0.86449116 -0.3851057 0.61000216 1.1063476e-38
0.33869463 -0.37258023 0.61529267 0
0.59656268 -0.37359524 0.61000031 1.097128e-38
0.60537857 -0.37509197 0.61000043 1.097128e-38
0.61515629 -0.37505129 0.61000055 1.097128e-38
0.6252259 -0.37490693 0.61000055 1.097128e-38
0.6351707 -0.37508336 0.61000055 1.097128e-38
0.64433527 -0.37488067 0.61000061 1.097128e-38
0.65477413 -0.37509483 0.61000061 1.097128e-38
0.66525286 -0.37491065 0.61000067 1.097128e-38
0.67478377 -0.37492648 0.61000073 1.097128e-38
0.68450505 -0.37517878 0.61000079 1.097128e-38
0.6942482 -0.3749589 0.61000085 1.097128e-38
0.70418799 -0.374975 0.61000091 1.097128e-38
0.71427095 -0.37499216 0.61000115 1.097128e-38
0.72449869 -0.37500876 0.61000097 1.097128e-38
0.7348761 -0.37502632 0.61000133 1.097128e-38
0.7454046 -0.37504345 0.61000139 1.097128e-38
0.7545743 -0.37501359 0.61000144 1.097128e-38
0.76420647 -0.37483108 0.6100015 1.097128e-38
0.77510524 -0.37508708 0.61000156 1.1063476e-38
0.78489774 -0.37498629 0.61000156 1.1063476e-38
0.79453522 -0.37535563 0.61000156 1.1063476e-38
0.80445898 -0.37659624 0.61000168 1.1063476e-38
0.81497115 -0.37614247 0.61000168 1.1063476e-38
0.82527345 -0.37510496 0.61016124 1.1063476e-38
0.83403814 -0.37514779 0.61000192 1.1063476e-38
0.84464455 -0.37521523 0.61000186 1.1063476e-38
0.85501003 -0.37474459 0.61000204 1.1063476e-38
0.86426926 -0.37501779 0.6100021 1.1063476e-38
0.34839612 -0.3696602 0.61230558 7.8366285e-39
0.42756298 -0.36318257 0.61978596 1.0879084e-38
0.5793252 -0.36234444 0.61000025 1.097128e-38
0.58521909 -0.36429447 0.61000031 1.097128e-38
0.59450066 -0.36510459 0.61000043 1.097128e-38
0.60515445 -0.36500037 0.61000049 1.097128e-38
0.61506087 -0.36495683 0.61000049 1.097128e-38
0.62506706 -0.36501285 0.61000055 1.097128e-38
0.63522053 -0.36507154 0.61000061 1.097128e-38
0.64423037 -0.36501038 0.61000061 1.097128e-38
0.65460783 -0.36498117 0.61000067 1.097128e-38
0.66525364 -0.3648968 0.61000067 1.097128e-38
0.67484021 -0.36507705 0.61000079 1.097128e-38
0.68428588 -0.36484361 0.61041719 1.097128e-38
0.69430649 -0.36497015 0.61000091 1.097128e-38
0.70430183 -0.36513254 0.61000085 1.097128e-38
0.71433067 -0.36486021 0.61000127 1.097128e-38
0.72443718 -0.36526829 0.61000115 1.097128e-38
0.73493767 -0.36474702 0.61000127 1.097128e-38
0.74534112 -0.36516029 0.61000139 1.097128e-38
0.75474209 -0.36499703 0.61000144 1.097128e-38
0.7637524 -0.36543834 0.61000144 1.097128e-38
0.77471149 -0.36767814 0.6100015 1.097128e-38
0.78489763 -0.36904636 0.61000156 1.1063476e-38
0.81924754 -0.36997533 0.61000174 1.1063476e-38
0.8253423 -0.36500618 0.61000186 1.1063476e-38
0.83383107 -0.36515662 0.61014092 1.097128e-38
0.84456462 -0.36516845 0.61000186 1.1063476e-38
0.85544842 -0.36507931 0.61000204 1.1063476e-38
0.86449128 -0.36494297 0.61000216 1.1063476e-38
0.41948414 -0.35662535 0.61469227 9.285459e-39
0.56799847 -0.35133731 0.61000013 1.097128e-38
0.57639354 -0.35430077 0.61000031 1.097128e-38
0.58506876 -0.35506713 0.61000037 1.097128e-38
0.59457678 -0.35508856 0.61000043 1.097128e-38
0.60530412 -0.35489991 0.61000049 1.097128e-38
0.61510807 -0.35509565 0.61000055 1.097128e-38
0.62490749 -0.35512248 0.61000055 1.097128e-38
0.63512206 -0.3548241 0.61000055 1.097128e-38
0.64433521 -0.35515934 0.61000061 1.097128e-38
0.65477759 -0.35503983 0.61000061 1.097128e-38
0.6652528 -0.35488307 0.61000067 1.097128e-38
0.67473143 -0.35498396 0.61000073 1.097128e-38
0.68450505 -0.35486919 0.61000085 1.097128e-38
0.69418895 -0.35519883 0.61000091 1.097128e-38
0.70407426 -0.35485694 0.61000085 1.097128e-38
0.71420985 -0.35494876 0.61000127 1.097128e-38
0.72449917 -0.35506365 0.61000127 1.097128e-38
0.73458534 -0.35539147 0.61000127 1.097128e-38
0.74474186 -0.35704282 0.61000133 1.097128e-38
0.75474197 -0.3591775 0.61000133 1.097128e-38
0.82492065 -0.35487959 0.61000186 1.1063476e-38
0.83382475 -0.35503167 0.61000192 1.1063476e-38
0.84456474 -0.35487133 0.61000186 1.1063476e-38
0.85522938 -0.35505104 0.6100021 1.1063476e-38
0.86471313 -0.35486391 0.6100021 1.1063476e-38
0.55714816 -0.34251246 0.61000007 1.097128e-38
0.56567377 -0.34462377 0.60999995 1.097128e-38
0.57570499 -0.34483737 0.61000037 1.097128e-38
0.58506912 -0.34521198 0.61000037 1.097128e-38
0.59457701 -0.34490165 0.61000043 1.097128e-38
0.60538101 -0.34497336 0.61000049 1.097128e-38
0.61515623 -0.34523329 0.61000043 1.097128e-38
0.62514609 -0.345218 0.61000055 1.097128e-38
0.63517076 -0.34481236 0.61000061 1.097128e-38
0.64423549 -0.34484273 0.61000061 1.097128e-38
0.65460783 -0.34510943 0.61000061 1.097128e-38
0.66525364 -0.34486923 0.61000067 1.097128e-38
0.67484027 -0.34490895 0.61000073 1.097128e-38
0.68438923 -0.34516725 0.61000079 1.097128e-38
0.69424832 -0.34521008 0.61000085 1.097128e-38
0.70412827 -0.34477624 0.61000091 1.097128e-38
0.71356529 -0.34547389 0.61000115 1.097128e-38
0.72394621 -0.34813693 0.61000115 1.097128e-38
0.73096079 -0.34913993 0.61000121 1.097128e-38
0.8251316 -0.34505501 0.6100018 1.097128e-38
0.83403808 -0.34514987 0.61000192 1.097128e-38
0.84448534 -0.34482658 0.61000186 1.097128e-38
0.85522968 -0.34502855 0.61000204 1.097128e-38
0.86449158 -0.34512505 0.6100021 1.1063476e-38
0.55537015 -0.33531696 0.60999995 1.097128e-38
0.56545621 -0.33497551 0.60999995 1.097128e-38
0.57577854 -0.33496475 0.61000031 1.097128e-38
0.5851149 -0.33514565 0.61000037 1.097128e-38
0.59465265 -0.33505598 0.61000043 1.097128e-38
0.60522652 -0.33523139 0.61000049 1.097128e-38
0.61506081 -0.33514097 0.61000049 1.097128e-38
0.62498701 -0.33532873 0.61000055 1.097128e-38
0.63517147 -0.33501875 0.61000055 1.097128e-38
0.64433956 -0.33499017 0.61000061 1.097128e-38
0.65477747 -0.33516562 0.61000061 1.097128e-38
0.66530925 -0.33508664 0.61000073 1.097128e-38
0.67473137 -0.3348175 0.61000067 1.097128e-38
0.68427378 -0.33546779 0.61000085 1.097128e-38
0.69363117 -0.33715081 0.61000103 1.097128e-38
0.7034381 -0.33864361 0.61000097 1.097128e-38
0.8184123 -0.33447546 0.61000174 1.097128e-38
0.82513165 -0.3348873 0.6100018 1.097128e-38
0.83403814 -0.33492282 0.61000192 1.097128e-38
0.8445648 -0.33479252 0.61000186 1.097128e-38
0.85522932 -0.33500609 0.61000198 1.097128e-38
0.86449128 -0.33504301 0.61000216 1.097128e-38
0.55537015 -0.32527059 0.60999995 1.097128e-38
0.56545609 -0.3250173 0.60999995 1.097128e-38
0.57570493 -0.32509962 0.61000037 1.097128e-38
0.58506912 -0.32507274 0.61000037 1.097128e-38
0.59457678 -0.32504514 0.61000043 1.097128e-38
0.605304 -0.32513079 0.61000049 1.097128e-38
0.61496508 -0.32505086 0.61000055 1.097128e-38
0.62506694 -0.32525221 0.61000055 1.097128e-38
0.63517582 -0.32499996 0.61022717 1.097128e-38
0.64423543 -0.32512292 0.61000061 1.097128e-38
0.65460771 -0.32523772 0.61000061 1.097128e-38
0.66448808 -0.32614782 0.61000067 1.097128e-38
0.67426872 -0.32791424 0.61000091 1.097128e-38
0.68201447 -0.32909364 0.61000085 1.097128e-38
0.81677651 -0.32437977 0.61000168 1.097128e-38
0.82534236 -0.32505733 0.61000192 1.097128e-38
0.83425122 -0.32503557 0.61000198 1.097128e-38
0.84456402 -0.32501033 0.61000186 1.097128e-38
0.85501003 -0.32498482 0.61000204 1.097128e-38
0.86426926 -0.3249622 0.6100021 1.097128e-38
0.52893782 -0.31196338 0.61693412 1.097128e-38
0.5437786 -0.31454048 0.61185455 1.097128e-38
0.55565554 -0.31546739 0.60999995 1.097128e-38
0.56545603 -0.3148903 0.60999995 1.097128e-38
0.57570487 -0.31489077 0.61000037 1.097128e-38
0.5850237 -0.31500083 0.61000037 1.097128e-38
0.59450072 -0.31503603 0.61000043 1.097128e-38
0.60530412 -0.31485963 0.61000049 1.097128e-38
0.61525142 -0.31498286 0.61000055 1.097128e-38
0.62514621 -0.31517383 0.61000055 1.097128e-38
0.63522047 -0.31521156 0.61000061 1.097128e-38
0.64405531 -0.31543323 0.61000061 1.097128e-38
0.6542269 -0.31825235 0.61000061 1.097128e-38
0.8076213 -0.31069368 0.61000174 1.097128e-38
0.8154729 -0.3146818 0.61000168 1.097128e-38
0.8251316 -0.3152284 0.6100018 1.097128e-38
0.83403832 -0.31514925 0.61000192 1.097128e-38
0.84456462 -0.31522807 0.61000186 1.097128e-38
0.85522938 -0.31496251 0.61000198 1.097128e-38
0.86449116 -0.31488031 0.61000216 1.097128e-38
0.40230691 -0.30144215 0.61838222 6.2448278e-39
0.55636913 -0.30518675 0.6099999 1.097128e-38
0.56545609 -0.30476326 0.61000001 1.097128e-38
0.57563102 -0.3050279 0.61000031 1.097128e-38
0.58506906 -0.3049342 0.61000037 1.097128e-38
0.59457678 -0.30501708 0.61000043 1.097128e-38
0.60531807 -0.30485705 0.61030817 1.097128e-38
0.61515629 -0.30489126 0.61000049 1.097128e-38
0.62498683 -0.30528817 0.61000055 1.097128e-38
0.63515878 -0.305372 0.61083132 1.0418468e-38
0.64084798 -0.30881807 0.61000055 1.097128e-38
0.80589515 -0.30368802 0.61000168 1.097128e-38
0.8148737 -0.30522013 0.61000162 1.097128e-38
0.8251316 -0.3050606 0.6100018 1.097128e-38
0.83403802 -0.30492228 0.61000192 1.097128e-38
0.84464467 -0.30519146 0.61000186 1.097128e-38
0.85544837 -0.30493596 0.61000198 1.097128e-38
0.86471301 -0.3047941 0.6100021 1.097128e-38
0.36797065 -0.29255074 0.61928731 1.0879084e-38
0.40094113 -0.29721096 0.61905456 6.2448278e-39
0.5229128 -0.29771623 0.61314392 1.0879084e-38
0.55636907 -0.29513237 0.6099999 1.097128e-38
0.56538594 -0.29479942 0.61000007 1.097128e-38
0.57570493 -0.29515415 0.61000037 1.097128e-38
0.58493227 -0.29485959 0.61000037 1.097128e-38
0.59457707 -0.29483014 0.61000043 1.097128e-38
0.60522658 -0.29519337 0.61000043 1.097128e-38
0.61506087 -0.29480183 0.61000043 1.097128e-38
0.62475729 -0.29515189 0.61048466 1.0602859e-38
0.63253194 -0.29818073 0.61000049 1.097128e-38
0.79743779 -0.29358694 0.61000162 1.097128e-38
0.80474651 -0.29501086 0.61000162 1.097128e-38
0.81487381 -0.29512066 0.61000162 1.097128e-38
0.82513165 -0.29489294 0.6100018 1.097128e-38
0.83403838 -0.29503611 0.61000198 1.097128e-38
0.84456462 -0.29514825 0.61000186 1.097128e-38
0.85522944 -0.29491618 0.61000198 1.097128e-38
0.86449176 -0.29506233 0.6100021 1.097128e-38
0.55636913 -0.2850779 0.6099999 1.097128e-38
0.56553179 -0.28516212 0.61029446 1.0879084e-38
0.57570487 -0.28494531 0.61000031 1.097128e-38
0.58520567 -0.28501481 0.61000037 1.097128e-38
0.59450346 -0.28481066 0.61000043 1.097128e-38
0.60530388 -0.28509042 0.61000049 1.097128e-38
0.61510807 -0.28493813 0.61000049 1.097128e-38
0.62234277 -0.2873114 0.61000049 1.097128e-38
0.78769761 -0.28249937 0.6100015 1.097128e-38
0.79498279 -0.28472131 0.61000156 1.097128e-38
0.80474609 -0.28531322 0.61000162 1.097128e-38
0.8148737 -0.28502122 0.61000162 1.097128e-38
0.82513195 -0.28506407 0.61000174 1.097128e-38
0.83403802 -0.28515005 0.61000192 1.097128e-38
0.84446114 -0.28501162 0.61030966 1.097128e-38
0.85522974 -0.28489366 0.61000204 1.097128e-38
0.86449116 -0.28498033 0.61000216 1.097128e-38
0.41921791 -0.27935529 0.61990386 8.28753e-39
0.42283687 -0.27756616 0.61908925 8.3836842e-39
0.55636913 -0.27502349 0.6099999 1.097128e-38
0.56545597 -0.27505681 0.61000001 1.097128e-38
0.57570517 -0.27490655 0.61000025 1.097128e-38
0.58511484 -0.27515545 0.61000037 1.097128e-38
0.5945763 -0.27497476 0.61000043 1.097128e-38
0.60530418 -0.2748192 0.61000049 1.097128e-38
0.61312342 -0.27683941 0.61160058 9.9574924e-39
0.77931887 -0.27191061 0.6100015 1.097128e-38
0.78529692 -0.27451101 0.61000156 1.097128e-38
0.79475933 -0.27497157 0.61000156 1.097128e-38
0.80474627 -0.27528125 0.61000162 1.097128e-38
0.8148737 -0.2749218 0.61000162 1.097128e-38
0.82513165 -0.2752353 0.61000168 1.097128e-38
0.83397388 -0.27479798 0.61055493 1.097128e-38
0.84456462 -0.27506942 0.61000186 1.097128e-38
0.85500991 -0.2752251 0.61000198 1.097128e-38
0.86426926 -0.27490661 0.6100021 1.097128e-38
0.49420205 -0.26925638 0.61743039 1.0879084e-38
0.55636907 -0.26496905 0.6099999 1.0879084e-38
0.5653156 -0.26510227 0.61000013 1.097128e-38
0.57570499 -0.26486781 0.61000019 1.097128e-38
0.58506918 -0.26508459 0.61000037 1.097128e-38
0.59465021 -0.26513717 0.61000043 1.097128e-38
0.60354424 -0.26609546 0.61103386 1.0234076e-38
0.77636701 -0.26404205 0.6100015 1.097128e-38
0.78489769 -0.26476607 0.61000156 1.097128e-38
0.79475939 -0.26500601 0.61000162 1.097128e-38
0.80474627 -0.26524922 0.61000168 1.097128e-38
0.8148737 -0.2648223 0.61000162 1.097128e-38
0.82513165 -0.26506758 0.6100018 1.097128e-38
0.83382469 -0.26504645 0.61000198 1.097128e-38
0.8443253 -0.26502684 0.61000186 1.097128e-38
0.85522938 -0.2651957 0.6100021 1.097128e-38
0.86449128 -0.26481757 0.61000216 1.097128e-38
0.55636913 -0.25491461 0.6099999 1.0879084e-38
0.56545603 -0.25514141 0.61000007 1.0879084e-38
0.57563382 -0.25482568 0.61000019 1.097128e-38
0.5850237 -0.25501484 0.61000037 1.097128e-38
0.59401846 -0.25566444 0.61084163 1.0510303e-38
0.60098475 -0.25995946 0.61000031 1.097128e-38
0.76677674 -0.25366884 0.61000144 1.097128e-38
0.7751714 -0.25485843 0.6100015 1.097128e-38
0.78489769 -0.25486621 0.61000156 1.097128e-38
0.79475939 -0.25504047 0.61000156 1.097128e-38
0.80474627 -0.25521719 0.61000168 1.097128e-38
0.8147974 -0.25497493 0.61000168 1.097128e-38
0.82513165 -0.25489986 0.61000174 1.097128e-38
0.83403832 -0.25515214 0.61000186 1.097128e-38
0.84456474 -0.25499168 0.61000186 1.097128e-38
0.85522932 -0.25482768 0.61000198 1.097128e-38
0.86471301 -0.25472432 0.61000204 1.097128e-38
0.42858869 -0.24819198 0.61598909 6.2448278e-39
0.51357889 -0.24387129 0.61771291 1.0879084e-38
0.55636907 -0.24486017 0.6099999 1.0879084e-38
0.56545603 -0.24501444 0.60999995 1.0879084e-38
0.57570499 -0.24479088 0.61000019 1.0879084e-38
0.58516264 -0.24518949 0.61106646 1.0418108e-38
0.59077185 -0.24812758 0.6116606 1.0233719e-38
0.75742948 -0.24230413 0.61000139 1.097128e-38
0.76442105 -0.24475127 0.6100015 1.097128e-38
0.77517128 -0.24502333 0.6100015 1.097128e-38
0.78489774 -0.24496628 0.61000156 1.097128e-38
0.79475933 -0.24507491 0.61000162 1.097128e-38
0.80474633 -0.24518515 0.61000168 1.097128e-38
0.81487381 -0.24512891 0.61000162 1.097128e-38
0.82492071 -0.24508326 0.61000174 1.097128e-38
0.83403802 -0.24492511 0.61000192 1.097128e-38
0.84476966 -0.24474232 0.61028183 1.097128e-38
0.85544837 -0.2447927 0.61000204 1.097128e-38
0.86449164 -0.24499966 0.61000204 1.097128e-38
0.33758396 -0.23413706 0.61621898 7.8366285e-39
0.5555889 -0.23525201 0.60999995 1.0879084e-38
0.56552625 -0.23505852 0.60999995 1.0879084e-38
0.57590276 -0.23485455 0.61057514 1.0694693e-38
0.58273613 -0.2373594 0.611377 9.8652925e-39
0.74938679 -0.23118439 0.61000127 1.097128e-38
0.75493371 -0.23478532 0.61000144 1.097128e-38
0.7640124 -0.23498939 0.61000144 1.097128e-38
0.77497429 -0.23494375 0.6100015 1.097128e-38
0.78489769 -0.23506638 0.61000156 1.097128e-38
0.79475927 -0.23510936 0.61000156 1.097128e-38
0.80474609 -0.23515315 0.61000162 1.097128e-38
0.8148737 -0.23502949 0.61000162 1.097128e-38
0.82513165 -0.23524356 0.61000186 1.097128e-38
0.83403802 -0.23469807 0.61000192 1.097128e-38
0.84456474 -0.2349108 0.61000186 1.097128e-38
0.85522968 -0.23512687 0.61000204 1.097128e-38
0.86426926 -0.23527925 0.61000204 1.097128e-38
0.48691365 -0.22615111 0.61360013 1.0879084e-38
0.5553658 -0.22525246 0.60999995 1.0879084e-38
0.56545597 -0.22509746 0.60999995 1.0879084e-38
0.57406223 -0.22617492 0.61097223 1.0234075e-38
0.74693418 -0.2237076 0.61000115 1.097128e-38
0.75474197 -0.22532892 0.61000144 1.097128e-38
0.76420647 -0.22498305 0.61000144 1.097128e-38
0.77517128 -0.22486258 0.6100015 1.097128e-38
0.78472286 -0.22484928 0.61000156 1.097128e-38
0.79475927 -0.22514379 0.61000156 1.097128e-38
0.80474627 -0.22512108 0.61000162 1.097128e-38
0.81487381 -0.22492997 0.61000168 1.097128e-38
0.82513165 -0.2250758 0.61000174 1.097128e-38
0.83425128 -0.22479688 0.61000198 1.097128e-38
0.84464467 -0.22487001 0.61000186 1.097128e-38
0.85522926 -0.22510444 0.61000198 1.097128e-38
0.8644914 -0.2251846 0.6100021 1.097128e-38
0.55536592 -0.21520603 0.60999995 1.0879084e-38
0.56439066 -0.21606679 0.60999995 1.0879084e-38
0.57157892 -0.21967809 0.61000007 1.0879084e-38
0.73730284 -0.21278717 0.61000115 1.097128e-38
0.74534142 -0.21482936 0.61000133 1.097128e-38
0.75490987 -0.21529275 0.61000144 1.097128e-38
0.76440102 -0.21497262 0.6100015 1.097128e-38
0.77517134 -0.21502741 0.6100015 1.097128e-38
0.78489769 -0.21460778 0.61000156 1.097128e-38
0.79475927 -0.21517825 0.61000156 1.097128e-38
0.80474633 -0.21508904 0.61000162 1.097128e-38
0.8146435 -0.21508771 0.61000168 1.097128e-38
0.82513165 -0.21490809 0.6100018 1.097128e-38
0.83386183 -0.21488796 0.61001754 1.097128e-38
0.84448534 -0.21508992 0.61000186 1.097128e-38
0.85500991 -0.21509865 0.61000204 1.097128e-38
0.86449146 -0.21475486 0.61000216 1.097128e-38
0.55471772 -0.20608936 0.61158562 9.8649352e-39
0.56139588 -0.20933408 0.61000007 1.0879084e-38
0.72836661 -0.20180468 0.61000115 1.097128e-38
0.73508173 -0.20456795 0.61000127 1.097128e-38
0.74521554 -0.20471495 0.61000127 1.097128e-38
0.75474173 -0.20495953 0.61000144 1.097128e-38
0.76420641 -0.2049692 0.6100015 1.097128e-38
0.77517116 -0.20519225 0.6100015 1.097128e-38
0.78489774 -0.20470788 0.61000156 1.097128e-38
0.79469144 -0.20496546 0.61000162 1.097128e-38
0.80474639 -0.20505701 0.61000162 1.097128e-38
0.81487387 -0.20523754 0.61000168 1.097128e-38
0.82513165 -0.20474036 0.61000174 1.097128e-38
0.83403832 -0.20503834 0.61000198 1.097128e-38
0.84456462 -0.20504923 0.61000186 1.097128e-38
0.85522932 -0.20506087 0.61000198 1.097128e-38
0.86471307 -0.20465454 0.6100021 1.097128e-38
0.54702735 -0.19540191 0.61812735 1.2918318e-39
0.71706408 -0.19210039 0.61000109 1.097128e-38
0.7249735 -0.19487333 0.61000103 1.097128e-38
0.73506254 -0.19492349 0.61000127 1.097128e-38
0.74540466 -0.19483294 0.61000133 1.097128e-38
0.75457436 -0.1946297 0.61000144 1.097128e-38
0.76427096 -0.19496071 0.61000144 1.097128e-38
0.77536863 -0.19510435 0.6100015 1.097128e-38
0.78489763 -0.19480796 0.61000156 1.097128e-38
0.79475921 -0.19474933 0.61000162 1.097128e-38
0.80474639 -0.19502498 0.61000168 1.097128e-38
0.81487358 -0.19513808 0.61000162 1.097128e-38
0.82513165 -0.19457263 0.61000168 1.097128e-38
0.83403802 -0.19515228 0.61000192 1.097128e-38
0.8443253 -0.19501749 0.61000186 1.097128e-38
0.85522926 -0.19469279 0.61000198 1.097128e-38
0.86449158 -0.19493692 0.6100021 1.097128e-38
0.53914654 -0.18072313 0.61913174 2.3978193e-39
0.54247224 -0.18712325 0.61855632 1.1992775e-39
0.70627356 -0.18272203 0.61000103 1.097128e-38
0.71420991 -0.18477236 0.61000097 1.097128e-38
0.72449833 -0.18505202 0.61000127 1.097128e-38
0.73493767 -0.18488097 0.61000127 1.097128e-38
0.74540478 -0.18519591 0.61000127 1.097128e-38
0.75499916 -0.18470098 0.61044782 1.097128e-38
0.76420641 -0.18495627 0.61000144 1.097128e-38
0.77528602 -0.18499397 0.61017489 1.097128e-38
0.78489769 -0.18490808 0.61000156 1.097128e-38
0.79475927 -0.18478379 0.61000162 1.097128e-38
0.80474639 -0.18499298 0.61000162 1.097128e-38
0.81487387 -0.18503863 0.61000168 1.097128e-38
0.82534236 -0.1847233 0.61000186 1.097128e-38
0.83382469 -0.18528678 0.61000198 1.097128e-38
0.84456462 -0.18497142 0.61000186 1.097128e-38
0.85544837 -0.18464938 0.61000204 1.097128e-38
0.86426938 -0.18522361 0.6100021 1.097128e-38
0.41033778 -0.17813361 0.61152405 1.0879084e-38
0.42214125 -0.17055584 0.61828518 1.0879084e-38
0.67598438 -0.17159073 0.61000079 1.0879084e-38
0.68444735 -0.1727794 0.61000091 1.0879084e-38
0.69471061 -0.17375609 0.61000091 1.097128e-38
0.70441556 -0.17507242 0.61000085 1.097128e-38
0.71452314 -0.17524703 0.6100145 1.0879084e-38
0.72431499 -0.17485096 0.61000109 1.097128e-38
0.73481321 -0.17484099 0.61000127 1.097128e-38
0.74559432 -0.17530863 0.61000133 1.097128e-38
0.75474203 -0.17489322 0.61000144 1.097128e-38
0.76403999 -0.17486311 0.61012274 1.097128e-38
0.77517122 -0.17519364 0.6100015 1.097128e-38
0.78468972 -0.17524044 0.61019999 1.0879084e-38
0.79475921 -0.17481823 0.61000162 1.097128e-38
0.80454105 -0.1753169 0.61000162 1.097128e-38
0.81487381 -0.1749392 0.61000162 1.097128e-38
0.82513165 -0.1749137 0.61000174 1.097128e-38
0.83403808 -0.17538139 0.61000192 1.097128e-38
0.84480333 -0.17492084 0.61000186 1.097128e-38
0.85522956 -0.17499204 0.61000198 1.097128e-38
0.86449152 -0.17512186 0.61000216 1.097128e-38
0.53786886 -0.16555013 0.61739004 1.3837066e-39
0.5430308 -0.16184653 0.61734504 1.6606606e-39
0.62685001 -0.16150512 0.61000043 1.0879084e-38
0.63486201 -0.16209219 0.61000055 1.0879084e-38
0.64504981 -0.16276136 0.61000061 1.0879084e-38
0.65491349 -0.1638981 0.61000061 1.0879084e-38
0.66537297 -0.16444428 0.61042106 1.0879084e-38
0.67478323 -0.16500407 0.61000067 1.0879084e-38
0.68466854 -0.16491987 0.61000073 1.0879084e-38
0.69407207 -0.1651008 0.61000085 1.0879084e-38
0.7039606 -0.16479649 0.61000085 1.0879084e-38
0.71450138 -0.16516775 0.61000097 1.0879084e-38
0.72449887 -0.16510779 0.61000097 1.097128e-38
0.7346893 -0.16480355 0.61000127 1.097128e-38
0.74546772 -0.16519426 0.61000133 1.097128e-38
0.75474209 -0.16519405 0.61000144 1.097128e-38
0.7640124 -0.164711 0.61000144 1.097128e-38
0.77523685 -0.16510899 0.6100015 1.097128e-38
0.78489769 -0.16510825 0.61000156 1.097128e-38
0.79475921 -0.16485268 0.61000156 1.097128e-38
0.80474633 -0.16559897 0.61000162 1.097128e-38
0.81487387 -0.16483974 0.61000168 1.097128e-38
0.82513165 -0.16474599 0.6100018 1.097128e-38
0.83403802 -0.16515437 0.61000192 1.097128e-38
0.84456474 -0.16489057 0.61000186 1.097128e-38
0.85501003 -0.16533895 0.61000204 1.097128e-38
0.86449134 -0.16469215 0.61000198 1.097128e-38
0.3609826 -0.15993838 0.61698014 1.0879084e-38
0.54768974 -0.15863721 0.61764783 1.660662e-39
0.55503827 -0.15499084 0.61286461 7.9292011e-39
0.56511688 -0.1532059 0.60999995 1.0879084e-38
0.57544702 -0.15257846 0.61000007 1.0879084e-38
0.58506912 -0.15239298 0.61000013 1.0879084e-38
0.59495234 -0.1528938 0.61000025 1.0879084e-38
0.605214 -0.15417847 0.61000037 1.0879084e-38
0.61510849 -0.1542708 0.61000049 1.0879084e-38
0.62522024 -0.15489183 0.61000055 1.0879084e-38
0.63533294 -0.15494086 0.61000055 1.0879084e-38
0.64407659 -0.15504974 0.61000061 1.0879084e-38
0.65469074 -0.15504907 0.61000061 1.0879084e-38
0.66546828 -0.15504842 0.61000067 1.0879084e-38
0.6746124 -0.15516083 0.61000067 1.0879084e-38
0.68441099 -0.1548758 0.61028934 1.0879084e-38
0.69447219 -0.15508349 0.61000079 1.0879084e-38
0.70406944 -0.1547734 0.61019039 1.0879084e-38
0.71403974 -0.15482141 0.61000097 1.0879084e-38
0.72473294 -0.15512007 0.61000115 1.0879084e-38
0.73487568 -0.15498823 0.61000127 1.0879084e-38
0.74516368 -0.15485276 0.61000133 1.0879084e-38
0.75474203 -0.15549488 0.61000144 1.0879084e-38
0.76420653 -0.15469533 0.6100015 1.0879084e-38
0.77517128 -0.1550311 0.6100015 1.0879084e-38
0.78489774 -0.15520835 0.61000156 1.0879084e-38
0.79475915 -0.15488711 0.61000162 1.0879084e-38
0.80474633 -0.15556693 0.61000168 1.0879084e-38
0.8148737 -0.15474029 0.61000162 1.0879084e-38
0.82513195 -0.15491712 0.61000186 1.097128e-38
0.83403808 -0.15492736 0.61000192 1.097128e-38
0.84464467 -0.15484619 0.61000186 1.097128e-38
0.85522944 -0.15529409 0.6100021 1.097128e-38
0.86471313 -0.15458475 0.6100021 1.097128e-38
0.50729781 -0.14303717 0.61279279 1.0879084e-38
0.55636591 -0.1455733 0.61000007 1.0879084e-38
0.56545597 -0.14509568 0.60999995 1.0879084e-38
0.57584727 -0.14490975 0.61000019 1.0879084e-38
0.58511484 -0.14489084 0.61000025 1.0879084e-38
0.59434861 -0.14514205 0.61000043 1.0879084e-38
0.60515445 -0.14495531 0.61000043 1.0879084e-38
0.61525142 -0.14483239 0.61000043 1.0879084e-38
0.62506723 -0.14499873 0.61000055 1.0879084e-38
0.63502347 -0.14516836 0.61000055 1.0879084e-38
0.64443457 -0.14494155 0.61000061 1.0879084e-38
0.65474838 -0.14511564 0.61024839 1.0879084e-38
0.66503817 -0.14506322 0.61000061 1.0879084e-38
0.67493975 -0.14505567 0.61000067 1.0879084e-38
0.68444729 -0.14508565 0.61000073 1.0879084e-38
0.69402355 -0.14488661 0.61000073 1.0879084e-38
0.70441562 -0.14510709 0.61000085 1.0879084e-38
0.71427053 -0.14490695 0.61000097 1.0879084e-38
0.72443724 -0.1449275 0.61000109 1.0879084e-38
0.73506254 -0.14516897 0.61000127 1.0879084e-38
0.74540484 -0.14472044 0.61000127 1.0879084e-38
0.75491005 -0.14545065 0.61000144 1.0879084e-38
0.76441193 -0.14476672 0.61011589 1.0879084e-38
0.77510536 -0.14495456 0.6100015 1.0879084e-38
0.78489774 -0.14530843 0.61000156 1.0879084e-38
0.79475927 -0.14492157 0.61000156 1.0879084e-38
0.80474633 -0.14553492 0.61000162 1.0879084e-38
0.8148737 -0.14464085 0.61000162 1.0879084e-38
0.82492071 -0.14545326 0.61000186 1.0879084e-38
0.8340382 -0.14470033 0.61000192 1.0879084e-38
0.84448534 -0.14507335 0.61000186 1.0879084e-38
0.85522938 -0.14492603 0.61000198 1.0879084e-38
0.86425269 -0.14525059 0.6100021 1.0879084e-38
0.38813934 -0.13536507 0.61378896 1.0786889e-38
0.42355293 -0.13306932 0.61468911 1.0786889e-38
0.51541483 -0.13146056 0.61979818 1.0879084e-38
0.55636597 -0.13551891 0.61000007 1.0879084e-38
0.56545597 -0.13496865 0.60999995 1.0879084e-38
0.57570487 -0.13487531 0.61000025 1.0879084e-38
0.5850237 -0.13504282 0.61000031 1.0879084e-38
0.59457684 -0.13512096 0.61000043 1.0879084e-38
0.6054529 -0.13484707 0.61000043 1.0879084e-38
0.61510873 -0.13497633 0.61000049 1.0879084e-38
0.62491268 -0.13510931 0.61000055 1.0879084e-38
0.63531858 -0.13490734 0.61000055 1.0879084e-38
0.64412141 -0.13510481 0.61000061 1.0879084e-38
0.65453023 -0.13500236 0.61000061 1.0879084e-38
0.66546828 -0.13501762 0.61000067 1.0879084e-38
0.67461234 -0.1349961 0.61000067 1.0879084e-38
0.68460584 -0.13514934 0.61000067 1.0879084e-38
0.69424802 -0.13511066 0.61000079 1.0879084e-38
0.70396054 -0.13484085 0.61000085 1.0879084e-38
0.71445209 -0.13522723 0.61000097 1.0879084e-38
0.72431505 -0.13496508 0.61000097 1.0879084e-38
0.73493767 -0.13513076 0.61000127 1.0879084e-38
0.74540478 -0.13508341 0.61000127 1.0879084e-38
0.75474185 -0.13512546 0.61000144 1.0879084e-38
0.76420635 -0.135171 0.61000144 1.0879084e-38
0.77497417 -0.13463844 0.6100015 1.0879084e-38
0.7848978 -0.13540851 0.61000156 1.0879084e-38
0.79455703 -0.13472193 0.61000156 1.0879084e-38
0.80474621 -0.13550287 0.61000162 1.0879084e-38
0.81487381 -0.13454141 0.61000168 1.0879084e-38
0.82513165 -0.13559981 0.6100018 1.0879084e-38
0.83403814 -0.13447332 0.61000192 1.0879084e-38
0.84432542 -0.13530362 0.61000186 1.0879084e-38
0.85522932 -0.13455793 0.61000198 1.0879084e-38
0.86449146 -0.13548893 0.61000198 1.0879084e-38
0.55636591 -0.12546453 0.61000007 1.0879084e-38
0.56626809 -0.12510394 0.6099999 1.0879084e-38
0.57577634 -0.12483276 0.61000019 1.0879084e-38
0.58493221 -0.12519695 0.61000025 1.0879084e-38
0.59472328 -0.12492625 0.61000043 1.0879084e-38
0.60538155 -0.12492546 0.61000043 1.0879084e-38
0.61496502 -0.12512365 0.61000049 1.0879084e-38
0.62522012 -0.12484604 0.61000055 1.0879084e-38
0.63500965 -0.12513943 0.61000055 1.0879084e-38
0.64428514 -0.12500808 0.61000061 1.0879084e-38
0.65495008 -0.12486637 0.61000061 1.0879084e-38
0.66503823 -0.12503873 0.61000061 1.0879084e-38
0.67500156 -0.12510993 0.61000067 1.0879084e-38
0.68427372 -0.12502159 0.61000073 1.0879084e-38
0.69441199 -0.12534796 0.61042118 1.0879084e-38
0.70418811 -0.1249937 0.61000091 1.0879084e-38
0.71410477 -0.12488167 0.61000097 1.0879084e-38
0.72449875 -0.12521678 0.61000121 1.0879084e-38
0.73463821 -0.12487072 0.61000133 1.0879084e-38
0.74559426 -0.12518959 0.61000133 1.0879084e-38
0.75457436 -0.12480371 0.61000144 1.0879084e-38
0.76420641 -0.12540881 0.61000144 1.0879084e-38
0.7751714 -0.12454392 0.6100015 1.0879084e-38
0.78489769 -0.12550861 0.61000156 1.0879084e-38
0.79475927 -0.1244936 0.61000156 1.0879084e-38
0.80474609 -0.12547086 0.61000162 1.0879084e-38
0.81510329 -0.12467613 0.61000168 1.0879084e-38
0.82513165 -0.12543206 0.61000174 1.0879084e-38
0.83425134 -0.12455823 0.61000198 1.0879084e-38
0.84456474 -0.12524834 0.61000186 1.0879084e-38
0.85544842 -0.12450607 0.61000198 1.0879084e-38
0.86449152 -0.12505917 0.6100021 1.0879084e-38
0.55636591 -0.11541011 0.61000007 1.0879084e-38
0.56647116 -0.11482409 0.6099999 1.0879084e-38
0.57570517 -0.11496742 0.61000001 1.0879084e-38
0.58506912 -0.1151157 0.61000013 1.0879084e-38
0.59465033 -0.11491409 0.61000043 1.0879084e-38
0.60507202 -0.11519389 0.61000043 1.0879084e-38
0.61510837 -0.11480717 0.61000049 1.0879084e-38
0.62506729 -0.11495642 0.61000055 1.0879084e-38
0.63517118 -0.11510988 0.61000055 1.0879084e-38
0.64444911 -0.11490772 0.61000055 1.0879084e-38
0.65444142 -0.11495557 0.61000061 1.0879084e-38
0.66546834 -0.11498681 0.61000061 1.0879084e-38
0.67456537 -0.11506465 0.61000067 1.0879084e-38
0.68466848 -0.11506318 0.61000067 1.0879084e-38
0.69407201 -0.11490607 0.61000091 1.0879084e-38
0.70441556 -0.1151417 0.61000085 1.0879084e-38
0.71427059 -0.11473169 0.61000097 1.0879084e-38
0.72473294 -0.11522251 0.61000103 1.0879084e-38
0.73487574 -0.11480713 0.61000127 1.0879084e-38
0.74546766 -0.1150796 0.61000127 1.0879084e-38
0.75474197 -0.11475834 0.61000144 1.0879084e-38
0.76440102 -0.11538523 0.6100015 1.0879084e-38
0.77517134 -0.11470876 0.6100015 1.0879084e-38
0.7848978 -0.11560872 0.61000156 1.0879084e-38
0.79475939 -0.11452806 0.61000156 1.0879084e-38
0.80474609 -0.1154388 0.61000162 1.0879084e-38
0.81487387 -0.11484603 0.61000168 1.0879084e-38
0.82513165 -0.11526434 0.61000168 1.0879084e-38
0.83403832 -0.11504059 0.61000198 1.0879084e-38
0.84456462 -0.11495124 0.61000186 1.0879084e-38
0.85499352 -0.11523586 0.61000204 1.0879084e-38
0.86449134 -0.11462944 0.61000216 1.0879084e-38
0.38632962 -0.10989926 0.61393094 1.0786889e-38
0.44551918 -0.1024735 0.6126439 1.0879084e-38
0.55636591 -0.10535571 0.61000007 1.0879084e-38
0.56647104 -0.10468896 0.6099999 1.0879084e-38
0.57563382 -0.10510376 0.61000001 1.0879084e-38
0.58506918 -0.10483202 0.61000019 1.0879084e-38
0.59450114 -0.10508145 0.61000043 1.0879084e-38
0.60530394 -0.10508461 0.61000043 1.0879084e-38
0.61526537 -0.10492448 0.61000037 1.0879084e-38
0.62491286 -0.10507049 0.61000055 1.0879084e-38
0.63537693 -0.10484945 0.61000055 1.0879084e-38
0.64437497 -0.10526177 0.61006707 1.0879084e-38
0.6549502 -0.10498959 0.61000061 1.0879084e-38
0.66503811 -0.10501421 0.61000067 1.0879084e-38
0.67500156 -0.10493951 0.61000067 1.0879084e-38
0.68422621 -0.10495061 0.61000067 1.0879084e-38
0.69442439 -0.10511167 0.61000085 1.0879084e-38
0.70396054 -0.1048852 0.61000085 1.0879084e-38
0.71433395 -0.10527847 0.61033785 1.0879084e-38
0.72426462 -0.10481789 0.61000127 1.0879084e-38
0.73487568 -0.10524018 0.61000127 1.0879084e-38
0.74516368 -0.10474861 0.61000133 1.0879084e-38
0.75474203 -0.10505916 0.61000144 1.0879084e-38
0.76427096 -0.10514475 0.61000144 1.0879084e-38
0.77517122 -0.10487358 0.6100015 1.0879084e-38
0.78489769 -0.1057088 0.61000156 1.0879084e-38
0.79475939 -0.10456252 0.61000156 1.0879084e-38
0.80474621 -0.10540678 0.61000162 1.0879084e-38
0.81487358 -0.1047466 0.61000162 1.0879084e-38
0.82513165 -0.10509661 0.61000174 1.0879084e-38
0.83382469 -0.10552715 0.61000198 1.0879084e-38
0.84456462 -0.10465415 0.61000186 1.0879084e-38
0.85522938 -0.10552733 0.61000198 1.0879084e-38
0.86471319 -0.10451498 0.6100021 1.0879084e-38
0.4580428 -0.090144508 0.61873943 4.1422971e-39
0.48191482 -0.093178973 0.61165643 1.0879084e-38
0.55645698 -0.095690347 0.61000007 1.0879084e-38
0.56647104 -0.094553858 0.6099999 1.0879084e-38
0.57556224 -0.09524183 0.61000007 1.0879084e-38
0.58520567 -0.094746567 0.61000013 1.0879084e-38
0.59442979 -0.095246442 0.61000043 1.0879084e-38
0.6054529 -0.094802171 0.61000043 1.0879084e-38
0.61496508 -0.095309965 0.61000049 1.0879084e-38
0.62522012 -0.094800234 0.61000055 1.0879084e-38
0.63496548 -0.0950993 0.61000055 1.0879084e-38
0.64449364 -0.094955608 0.61000055 1.0879084e-38
0.65444142 -0.095086254 0.61000061 1.0879084e-38
0.66546828 -0.094955996 0.61000061 1.0879084e-38
0.67456555 -0.094900616 0.61000067 1.0879084e-38
0.68444741 -0.095236897 0.61000079 1.0879084e-38
0.69408691 -0.094919629 0.61000079 1.0879084e-38
0.70418805 -0.095033213 0.61000091 1.0879084e-38
0.71443594 -0.095147267 0.61000097 1.0879084e-38
0.72449887 -0.094823636 0.61000103 1.0879084e-38
0.7351132 -0.095169947 0.61000133 1.0879084e-38
