# .PCD v0.7 - Point Cloud Data file format
VERSION 0.7
FIELDS x y z rgb
SIZE 4 4 4 4
TYPE F F F F
COUNT 1 1 1 1
WIDTH 980
HEIGHT 1
VIEWPOINT 0 0 0 1 0 0 0
POINTS 980
DATA ascii
1.884572 0.4651604 -5.3048134e-06 4.978564e-39
1.8951442 0.46453798 -5.364418e-06 4.978564e-39
1.9065075 0.46485639 -5.3167341e-06 4.978564e-39
1.9165105 0.46540323 -5.4836273e-06 4.978564e-39
1.9236969 0.4642767 -5.364418e-06 4.978564e-39
1.9345412 0.4657782 -5.364418e-06 4.978564e-39
1.9454514 0.46514797 -5.4041543e-06 4.978564e-39
1.9527689 0.46401057 -5.364418e-06 4.978564e-39
1.9638121 0.46552491 -5.4240227e-06 4.978564e-39
1.9749228 0.46488801 -5.4836273e-06 4.978564e-39
1.9861186 0.46424794 -5.364418e-06 4.978564e-39
1.9973834 0.4657777 -5.6028366e-06 4.978564e-39
2.0049396 0.46462336 -5.6028366e-06 4.978564e-39
2.0125306 0.46346366 -5.4836273e-06 4.978564e-39
2.0239878 0.46500424 -5.4240227e-06 4.978564e-39
2.0355165 0.4665544 -5.4836273e-06 4.978564e-39
2.0432501 0.46538842 -5.4836273e-06 4.978564e-39
2.0549231 0.46473652 -5.543232e-06 4.978564e-39
2.0666697 0.4663004 -5.6028366e-06 4.978564e-39
2.0745499 0.46512279 -5.6028366e-06 4.978564e-39
2.082186 0.4658972 -0.00024433539 4.978564e-39
2.094419 0.46551484 -5.6028366e-06 4.978564e-39
2.1064465 0.46485201 -5.6028366e-06 4.978564e-39
2.114516 0.4636569 -5.6028366e-06 4.978564e-39
2.1226242 0.46471474 -5.6028366e-06 4.978564e-39
2.1356831 0.46505681 -5.6028366e-06 4.978564e-39
2.1476181 0.46270743 -0.0016259113 4.978564e-39
2.1554487 0.46443623 -5.6028366e-06 4.978564e-39
2.1637542 0.46550876 -5.7220459e-06 4.978564e-39
2.1721001 0.46658656 -5.6028366e-06 4.978564e-39
2.1838579 0.46488428 -5.7220459e-06 4.978564e-39
2.1973834 0.46523455 -5.7220459e-06 4.978564e-39
2.2058938 0.46632227 -5.7220459e-06 4.978564e-39
2.2144458 0.4650954 -5.7220459e-06 4.978564e-39
2.2230408 0.4638626 -5.8412552e-06 4.978564e-39
2.2316775 0.46495494 -5.8412552e-06 4.978564e-39
2.2455909 0.4653089 -5.7697298e-06 4.978564e-39
2.2578466 0.4635672 -5.8412552e-06 4.978564e-39
2.2666569 0.46466976 -5.8412552e-06 4.978564e-39
2.275511 0.46577775 -5.7220459e-06 4.978564e-39
2.2844098 0.46689141 -5.8412552e-06 4.978564e-39
2.2933531 0.46326584 -5.8412552e-06 4.978564e-39
2.3023417 0.46437874 -5.8412552e-06 4.978564e-39
2.3113756 0.46549729 -5.8412552e-06 4.978564e-39
2.3250186 0.46478993 -5.9604645e-06 4.978564e-39
2.3387539 0.46408185 -5.8412552e-06 4.978564e-39
2.3479736 0.46761984 -5.9604645e-06 4.978564e-39
2.3853266 0.46735251 -6.0796738e-06 4.978564e-39
2.5223634 0.46889681 -6.3180923e-06 4.978564e-39
0.50474101 0.47489962 -3.4921309e-06 4.978564e-39
0.51474535 0.47479481 -3.5762787e-06 4.978564e-39
0.52492619 0.47498661 -3.5762787e-06 4.978564e-39
0.5352276 0.47518113 -3.5535722e-06 4.978564e-39
0.54557544 0.47507599 -3.6393894e-06 4.978564e-39
0.55382872 0.47499213 -3.5762787e-06 4.978564e-39
1.5486435 0.4742777 -4.8875809e-06 4.978564e-39
1.5570873 0.47563222 -4.7683716e-06 4.978564e-39
1.5655758 0.47510609 -4.7683716e-06 4.978564e-39
1.5741215 0.4745777 -4.8279762e-06 4.978564e-39
1.5850165 0.47554979 -4.8875809e-06 4.978564e-39
1.5942532 0.47396651 -4.8875809e-06 4.978564e-39
1.602973 0.47534212 -4.9471855e-06 4.978564e-39
1.6146779 0.4752681 -4.9471855e-06 4.978564e-39
1.6264787 0.47519341 -4.7683716e-06 4.978564e-39
1.6353898 0.47465307 -5.0067902e-06 4.978564e-39
1.6449617 0.47497863 -5.0067902e-06 4.978564e-39
1.6558027 0.47510448 -4.9829482e-06 4.978564e-39
1.6655039 0.47543487 -5.0067902e-06 4.978564e-39
1.6746632 0.4748888 -5.0067902e-06 4.978564e-39
1.6838735 0.47433838 -4.8875809e-06 4.978564e-39
1.6937683 0.47466835 -5.0544741e-06 4.978564e-39
1.7049757 0.47479516 -5.0544741e-06 4.978564e-39
1.7150065 0.47513008 -5.1259995e-06 4.978564e-39
1.7244778 0.47457385 -5.0663948e-06 4.978564e-39
1.7340029 0.47401312 -5.1259995e-06 4.978564e-39
1.7435954 0.47545615 -5.0067902e-06 4.978564e-39
1.7564765 0.47537899 -5.1259995e-06 4.978564e-39
1.7662067 0.47481483 -5.1259995e-06 4.978564e-39
1.7766616 0.47515559 -5.1259995e-06 4.978564e-39
1.7858624 0.47571111 -5.2452087e-06 4.978564e-39
1.7959915 0.47581586 -0.0008213885 4.978564e-39
1.8057743 0.47457123 -5.1657357e-06 4.978564e-39
1.8151591 0.47512913 -5.2452087e-06 4.978564e-39
1.8259472 0.47547761 -5.1259995e-06 4.978564e-39
1.8361372 0.47490188 -5.1856041e-06 4.978564e-39
1.8463868 0.47432116 -5.364418e-06 4.978564e-39
1.8532599 0.47531855 -5.2452087e-06 4.978564e-39
1.8636307 0.47473717 -5.2452087e-06 4.978564e-39
1.8740627 0.47415075 -5.1259995e-06 4.978564e-39
1.8845721 0.47566187 -5.3048134e-06 4.978564e-39
1.8951441 0.47507462 -5.364418e-06 4.978564e-39
1.9057953 0.47448456 -5.3048134e-06 4.978564e-39
1.9165105 0.47601098 -5.4836273e-06 4.978564e-39
1.9236969 0.47490835 -5.364418e-06 4.978564e-39
1.9345413 0.47431239 -5.364418e-06 4.978564e-39
1.9454516 0.47585207 -5.4836273e-06 4.978564e-39
1.9527689 0.47473899 -5.364418e-06 4.978564e-39
1.9638121 0.47413707 -5.4240227e-06 4.978564e-39
1.9749229 0.47569019 -5.4836273e-06 4.978564e-39
1.9861187 0.4750874 -5.364418e-06 4.978564e-39
1.9973834 0.4744792 -5.6028366e-06 4.978564e-39
2.0049396 0.47552541 -5.6028366e-06 4.978564e-39
2.0125306 0.47439098 -5.4836273e-06 4.978564e-39
2.0232215 0.4749859 -5.4359434e-06 4.978564e-39
2.0355165 0.47535747 -5.4836273e-06 4.978564e-39
2.0432501 0.47641796 -5.4836273e-06 4.978564e-39
2.0541425 0.47481194 -5.5313112e-06 4.978564e-39
2.0666697 0.47518641 -5.6028366e-06 4.978564e-39
2.0745499 0.47625652 -5.6028366e-06 4.978564e-39
2.0824676 0.47509968 -5.7220459e-06 4.978564e-39
2.094419 0.47447473 -5.6028366e-06 4.978564e-39
2.1064465 0.47609195 -5.6028366e-06 4.978564e-39
2.114516 0.4749237 -5.6028366e-06 4.978564e-39
2.1226242 0.47374973 -5.6028366e-06 4.978564e-39
2.1348643 0.47537932 -5.6028366e-06 4.978564e-39
2.1471829 0.47474429 -5.6028366e-06 4.978564e-39
2.1554487 0.4735586 -5.6028366e-06 4.978564e-39
2.1637542 0.4746533 -5.7220459e-06 4.978564e-39
2.1721001 0.47575331 -5.6028366e-06 4.978564e-39
2.1847007 0.47511119 -5.7220459e-06 4.978564e-39
2.1973834 0.47446862 -5.7220459e-06 4.978564e-39
2.2058938 0.47557899 -5.7220459e-06 4.978564e-39
2.2144458 0.47669476 -5.7220459e-06 4.978564e-39
2.2230408 0.47316498 -5.8412552e-06 4.978564e-39
2.2316775 0.47428033 -5.8412552e-06 4.978564e-39
2.2447188 0.47596443 -5.7816505e-06 4.978564e-39
2.2578466 0.47296223 -5.8412552e-06 4.978564e-39
2.2666569 0.47408825 -5.8412552e-06 4.978564e-39
2.275511 0.47521991 -5.9604645e-06 4.978564e-39
2.2844098 0.47635719 -5.8412552e-06 4.978564e-39
2.2933531 0.47512785 -5.8412552e-06 4.978564e-39
2.3023417 0.47389224 -5.8412552e-06 4.978564e-39
2.3113756 0.47503486 -5.8412552e-06 4.978564e-39
2.3259311 0.47543788 -5.9843064e-06 4.978564e-39
2.3387539 0.47369233 -5.8412552e-06 4.978564e-39
2.3479736 0.47484609 -5.9604645e-06 4.978564e-39
2.35724 0.47842067 -5.9604645e-06 4.978564e-39
2.3759162 0.47348827 -6.0796738e-06 4.978564e-39
2.3853266 0.47465339 -6.0796738e-06 4.978564e-39
2.3947856 0.47582453 -6.0796738e-06 4.978564e-39
0.5048722 0.48494497 -3.5061555e-06 4.8863684e-39
0.51493233 0.4846153 -0.0004341623 4.978564e-39
0.52499288 0.48484707 -3.5762787e-06 4.978564e-39
0.53522789 0.48503822 -3.5524367e-06 4.978564e-39
0.54564399 0.48504946 -3.6358833e-06 4.978564e-39
0.55382884 0.48511258 -3.6160152e-06 4.978564e-39
1.5486435 0.48553768 -4.8875809e-06 4.978564e-39
1.5570872 0.4850437 -4.7683716e-06 4.978564e-39
1.565576 0.48454583 -4.7683716e-06 4.978564e-39
1.5734123 0.48485315 -0.0007390664 4.978564e-39
1.5861681 0.4848606 -4.8875809e-06 4.978564e-39
1.5942532 0.48540869 -4.8875809e-06 4.978564e-39
1.602973 0.48490632 -4.9471855e-06 4.978564e-39
1.6146779 0.48487124 -4.9471855e-06 4.978564e-39
1.6264787 0.48483589 -4.7683716e-06 4.978564e-39
1.6353898 0.48432508 -5.0067902e-06 4.978564e-39
1.6437622 0.48488021 -5.0067902e-06 4.978564e-39
1.6570122 0.48464602 -5.0306321e-06 4.978564e-39
1.6655039 0.48520717 -5.0067902e-06 4.978564e-39
1.6746633 0.48469162 -5.0067902e-06 4.978564e-39
1.6838735 0.48417178 -4.8875809e-06 4.978564e-39
1.6925284 0.48473579 -5.0783156e-06 4.978564e-39
1.7062263 0.48449698 -5.0783156e-06 4.978564e-39
1.7150065 0.48506713 -5.1259995e-06 4.978564e-39
1.7244779 0.48454243 -5.0663948e-06 4.978564e-39
1.7340029 0.48401341 -5.1259995e-06 4.978564e-39
1.7435955 0.48548841 -5.0663948e-06 4.978564e-39
1.7564766 0.48545411 -5.1259995e-06 4.978564e-39
1.7662067 0.48492229 -5.1259995e-06 4.978564e-39
1.7753512 0.48550424 -5.1259995e-06 4.978564e-39
1.7858624 0.48588398 -5.2452087e-06 4.978564e-39
1.7957897 0.48534951 -5.3048134e-06 4.978564e-39
1.8057746 0.48481041 -5.2452087e-06 4.978564e-39
1.8165039 0.48519048 -5.2452087e-06 4.978564e-39
1.8259472 0.4857839 -5.1259995e-06 4.978564e-39
1.8361372 0.48524207 -5.1856041e-06 4.978564e-39
1.8463868 0.48469552 -5.364418e-06 4.978564e-39
1.8543323 0.48533696 -0.00028031826 4.978564e-39
1.8636305 0.48516887 -5.2452087e-06 4.978564e-39
1.8740627 0.48461723 -5.1259995e-06 4.978564e-39
1.8838694 0.48521885 -5.2928926e-06 4.978564e-39
1.8951442 0.48561126 -5.364418e-06 4.978564e-39
1.9057952 0.48505661 -5.3048134e-06 4.978564e-39
1.9165105 0.48449716 -5.4836273e-06 4.978564e-39
1.9236969 0.48554 -5.364418e-06 4.978564e-39
1.9345413 0.48498014 -5.364418e-06 4.978564e-39
1.9454516 0.48441532 -5.4836273e-06 4.978564e-39
1.9527689 0.4854674 -5.364418e-06 4.978564e-39
1.9638122 0.48490223 -5.4240227e-06 4.978564e-39
1.9749229 0.48433191 -5.4836273e-06 4.978564e-39
1.9861186 0.48592681 -5.364418e-06 4.978564e-39
1.9973835 0.48535609 -5.6028366e-06 4.978564e-39
2.0049396 0.48424703 -5.6028366e-06 4.978564e-39
2.0125306 0.4853183 -5.4836273e-06 4.978564e-39
2.024754 0.48572588 -5.4359434e-06 4.978564e-39
2.0355165 0.48416051 -5.4836273e-06 4.978564e-39
2.0432501 0.48524159 -5.4836273e-06 4.978564e-39
2.0557036 0.48565274 -5.5551527e-06 4.978564e-39
2.0666697 0.48407242 -5.6028366e-06 4.978564e-39
2.0745499 0.48516348 -5.6028366e-06 4.978564e-39
2.0824676 0.48625976 -5.7220459e-06 4.978564e-39
2.0936198 0.48466739 -5.6028366e-06 4.978564e-39
2.1064465 0.48508391 -5.6028366e-06 4.978564e-39
2.114516 0.48619044 -5.6028366e-06 4.978564e-39
2.1226242 0.48504353 -5.6028366e-06 4.978564e-39
2.1348643 0.48444694 -5.6028366e-06 4.978564e-39
2.1471829 0.48611975 -5.6028366e-06 4.978564e-39
2.1554487 0.4849616 -5.6028366e-06 4.978564e-39
2.1637542 0.48379779 -5.7220459e-06 4.978564e-39
2.1721001 0.48492002 -5.6028366e-06 4.978564e-39
2.1855435 0.48534593 -5.7220459e-06 4.978564e-39
2.1973834 0.48370266 -5.7220459e-06 4.978564e-39
2.2058938 0.48483568 -5.7220459e-06 4.978564e-39
2.2144458 0.48597425 -5.7220459e-06 4.978564e-39
2.2230408 0.48479295 -5.8412552e-06 4.978564e-39
2.2316775 0.48360568 -5.8412552e-06 4.978564e-39
2.2447188 0.48532453 -5.7816505e-06 4.978564e-39
2.2578466 0.48470604 -5.8412552e-06 4.978564e-39
2.2666569 0.48350674 -5.8412552e-06 4.978564e-39
2.275511 0.48466197 -5.9604645e-06 4.978564e-39
2.2844098 0.48582295 -5.8412552e-06 4.978564e-39
2.2933531 0.48698983 -5.8412552e-06 4.978564e-39
2.3023417 0.4834058 -5.8412552e-06 4.978564e-39
2.3113756 0.48457244 -5.8412552e-06 4.978564e-39
2.3250186 0.48633426 -5.9604645e-06 4.978564e-39
2.3387539 0.4833028 -5.8412552e-06 4.978564e-39
2.3479736 0.48448113 -5.9604645e-06 4.978564e-39
2.35724 0.4832505 -5.9604645e-06 4.978564e-39
2.3665543 0.48927701 -6.0796738e-06 4.978564e-39
2.3759162 0.48319769 -6.0796738e-06 4.978564e-39
2.3853266 0.48438787 -6.0796738e-06 4.978564e-39
2.3947856 0.4855842 -6.0796738e-06 4.978564e-39
0.50447959 0.49499041 -3.5131679e-06 4.8863684e-39
0.51474607 0.49499902 -3.5816972e-06 4.978564e-39
0.52512717 0.49500763 -3.5762787e-06 4.978564e-39
0.53533739 0.49490124 -3.5706021e-06 4.978564e-39
0.54571229 0.49502406 -3.6323772e-06 4.978564e-39
0.55400968 0.49521816 -3.6221284e-06 4.978564e-39
1.5486435 0.49492106 -4.8875809e-06 4.978564e-39
1.5570873 0.49445513 -4.7683716e-06 4.978564e-39
1.565576 0.49587345 -4.7683716e-06 4.978564e-39
1.5746927 0.49436539 -4.8160555e-06 4.978564e-39
1.5855923 0.49541533 -4.8875809e-06 4.978564e-39
1.5942533 0.49494383 -4.8875809e-06 4.978564e-39
1.6031941 0.49501759 -0.00041309066 4.978564e-39
1.6140903 0.49552935 -4.9591063e-06 4.978564e-39
1.6264786 0.49447826 -4.7683716e-06 4.978564e-39
1.6353898 0.49593163 -5.0067902e-06 4.978564e-39
1.6449617 0.49438649 -5.0067902e-06 4.978564e-39
1.6564075 0.49546254 -5.0067902e-06 4.978564e-39
1.664066 0.49427941 -0.0012166336 4.978564e-39
1.6746635 0.49449444 -5.0067902e-06 4.978564e-39
1.6838735 0.49597192 -4.8875809e-06 4.978564e-39
1.6937683 0.49440113 -5.0544741e-06 4.978564e-39
1.7056011 0.49549523 -5.0663948e-06 4.978564e-39
1.7150065 0.49500421 -5.1259995e-06 4.978564e-39
1.7244778 0.49451104 -5.0663948e-06 4.978564e-39
1.7340029 0.4940137 -5.1259995e-06 4.978564e-39
1.7435954 0.49552065 -5.0663948e-06 4.978564e-39
1.7558298 0.49462113 -5.1259995e-06 4.978564e-39
1.7662067 0.49502981 -5.1259995e-06 4.978564e-39
1.7766616 0.49544016 -5.1259995e-06 4.978564e-39
1.7858624 0.49402231 -5.2452087e-06 4.978564e-39
1.7957897 0.4955554 -5.3048134e-06 4.978564e-39
1.8057746 0.4950496 -5.2452087e-06 4.978564e-39
1.8158315 0.4945415 -5.2452087e-06 4.978564e-39
1.8259472 0.4960902 -5.1259995e-06 4.978564e-39
1.8354559 0.4946503 -5.1975248e-06 4.978564e-39
1.8463868 0.49506983 -5.364418e-06 4.978564e-39
1.8532599 0.496113 -5.2452087e-06 4.978564e-39
1.8628439 0.49509284 -0.0012610847 4.978564e-39
1.8740627 0.49508366 -5.1259995e-06 4.978564e-39
1.8852749 0.49550885 -5.3405761e-06 4.978564e-39
1.8951442 0.49404055 -5.364418e-06 4.978564e-39
1.9057953 0.49562871 -5.3048134e-06 4.978564e-39
1.9165105 0.49510491 -5.4836273e-06 4.978564e-39
1.9236969 0.49404532 -5.364418e-06 4.978564e-39
1.9345413 0.49564785 -5.364418e-06 4.978564e-39
1.9454516 0.49511936 -5.4836273e-06 4.978564e-39
1.9527692 0.49405017 -5.364418e-06 4.978564e-39
1.964035 0.49611259 -0.0012254051 4.978564e-39
1.9749228 0.49513403 -5.4836273e-06 4.978564e-39
1.9861186 0.49459827 -5.364418e-06 4.978564e-39
1.9973834 0.49623299 -5.6028366e-06 4.978564e-39
2.0049396 0.49514911 -5.6028366e-06 4.978564e-39
2.0125306 0.4940601 -5.4836273e-06 4.978564e-39
2.0239878 0.49570751 -5.4836273e-06 4.978564e-39
2.0355165 0.49516436 -5.4836273e-06 4.978564e-39
2.0432501 0.49406525 -5.4836273e-06 4.978564e-39
2.0549231 0.49572808 -5.543232e-06 4.978564e-39
2.0666697 0.49517989 -5.6028366e-06 4.978564e-39
2.0745499 0.4940705 -5.6028366e-06 4.978564e-39
2.0824676 0.49518782 -5.7220459e-06 4.978564e-39
2.0952182 0.49564165 -5.6028366e-06 4.978564e-39
2.1064465 0.49407583 -5.6028366e-06 4.978564e-39
2.114516 0.49520382 -5.6028366e-06 4.978564e-39
2.1226242 0.49633726 -5.6028366e-06 4.978564e-39
2.1340458 0.49475965 -5.6028366e-06 4.978564e-39
2.1471829 0.49522015 -5.6028366e-06 4.978564e-39
2.1554487 0.49636459 -5.6028366e-06 4.978564e-39
2.1637542 0.49522844 -5.7220459e-06 4.978564e-39
2.1721001 0.49408674 -5.6028366e-06 4.978564e-39
2.1847007 0.49581462 -5.7220459e-06 4.978564e-39
2.1973834 0.49524522 -5.7220459e-06 4.978564e-39
2.2058938 0.49409238 -5.7220459e-06 4.978564e-39
2.2144458 0.49525374 -5.7220459e-06 4.978564e-39
2.2230408 0.49642086 -5.8412552e-06 4.978564e-39
2.2316775 0.49526238 -5.8412552e-06 4.978564e-39
2.2447188 0.49468461 -5.7816505e-06 4.978564e-39
2.2578466 0.49644986 -5.8412552e-06 4.978564e-39
2.2666569 0.49527988 -5.8412552e-06 4.978564e-39
2.275511 0.49410403 -5.9604645e-06 4.978564e-39
2.2844098 0.49528873 -5.8412552e-06 4.978564e-39
2.2933531 0.49647939 -5.8412552e-06 4.978564e-39
2.3023417 0.4929193 -5.8412552e-06 4.978564e-39
2.3113756 0.49411002 -5.8412552e-06 4.978564e-39
2.3250186 0.49590817 -5.9604645e-06 4.978564e-39
2.3387539 0.49291328 -5.8412552e-06 4.978564e-39
2.3479736 0.49170738 -5.9604645e-06 4.978564e-39
2.3665543 0.49654037 -6.0796738e-06 4.978564e-39
2.3759165 0.49290714 -6.0796738e-06 4.978564e-39
2.3853266 0.49412236 -6.0796738e-06 4.978564e-39
2.3947856 0.49534386 -6.0796738e-06 4.978564e-39
2.4042938 0.49657178 -6.0796738e-06 4.978564e-39
0.50461012 0.50503427 -3.5482294e-06 4.8863684e-39
0.51463836 0.5052129 -3.5819553e-06 4.8863684e-39
0.5247255 0.50516558 -3.5762787e-06 4.978564e-39
0.53500903 0.50500268 -3.5762787e-06 4.978564e-39
0.54564404 0.50499845 -3.6358833e-06 4.978564e-39
0.55382884 0.50535458 -3.6160152e-06 4.978564e-39
1.5486435 0.50430441 -4.8875809e-06 4.978564e-39
1.5565227 0.50489873 -4.7683716e-06 4.978564e-39
1.5655758 0.50531316 -4.7683716e-06 4.978564e-39
1.5741215 0.50487578 -4.8279762e-06 4.978564e-39
1.5855923 0.50492162 -4.8875809e-06 4.978564e-39
1.5942532 0.50447899 -4.8875809e-06 4.978564e-39
1.6023901 0.50508344 -4.9591063e-06 4.978564e-39
1.6152656 0.50494319 -4.9352648e-06 4.978564e-39
1.6258863 0.50517803 -4.7683716e-06 4.978564e-39
1.6353898 0.50560367 -5.0067902e-06 4.978564e-39
1.644362 0.5051564 -5.0067902e-06 4.978564e-39
1.6564075 0.50520456 -5.0067902e-06 4.978564e-39
1.6655039 0.50475174 -5.0067902e-06 4.978564e-39
1.674051 0.50537205 -5.0067902e-06 4.978564e-39
1.6838737 0.50580543 -4.9471855e-06 4.978564e-39
1.6931483 0.50535131 -5.0663948e-06 4.978564e-39
1.705601 0.50540107 -5.0663948e-06 4.978564e-39
1.7150065 0.50494128 -5.1259995e-06 4.978564e-39
1.7238445 0.50557256 -5.0783156e-06 4.978564e-39
1.7340029 0.50401396 -5.1259995e-06 4.978564e-39
1.742954 0.50464654 -5.1021575e-06 4.978564e-39
1.7571236 0.50449735 -5.1259995e-06 4.978564e-39
1.7662067 0.50513726 -5.1259995e-06 4.978564e-39
1.7760065 0.5046683 -5.1259995e-06 4.978564e-39
1.7858624 0.50419521 -5.2452087e-06 4.978564e-39
1.795126 0.5048393 -5.3167341e-06 4.978564e-39
1.8057746 0.50528878 -5.2452087e-06 4.978564e-39
1.8158315 0.50481415 -5.2452087e-06 4.978564e-39
1.8259472 0.50433528 -5.1259995e-06 4.978564e-39
1.8368185 0.50478649 -5.1736833e-06 4.978564e-39
1.8463868 0.50544423 -5.364418e-06 4.978564e-39
1.8532599 0.50443077 -5.2452087e-06 4.978564e-39
1.864324 0.50488627 -5.2213668e-06 4.978564e-39
1.8740627 0.50555015 -5.1259995e-06 4.978564e-39
1.8845723 0.50506586 -5.364418e-06 4.978564e-39
1.8951441 0.50457716 -5.364418e-06 4.978564e-39
1.9050831 0.50524551 -5.2928926e-06 4.978564e-39
1.9165105 0.50571263 -5.4836273e-06 4.978564e-39
1.9236969 0.504677 -5.364418e-06 4.978564e-39
1.9345412 0.5041821 -5.364418e-06 4.978564e-39
1.9454516 0.50582343 -5.4836273e-06 4.978564e-39
1.9527692 0.50477862 -5.364418e-06 4.978564e-39
1.9638121 0.50427955 -5.4240227e-06 4.978564e-39
1.9749229 0.50593621 -5.4836273e-06 4.978564e-39
1.9853699 0.50445843 -5.364418e-06 4.978564e-39
1.9973834 0.50493455 -5.6028366e-06 4.978564e-39
2.0049396 0.50605118 -5.6028366e-06 4.978564e-39
2.0125306 0.50498742 -5.4836273e-06 4.978564e-39
2.0239878 0.50447989 -5.4836273e-06 4.978564e-39
2.0355165 0.50616813 -5.4836273e-06 4.978564e-39
2.0432501 0.50509483 -5.4836273e-06 4.978564e-39
2.0549231 0.50458288 -5.543232e-06 4.978564e-39
2.0666697 0.50628746 -5.6028366e-06 4.978564e-39
2.0745499 0.5052042 -5.6028366e-06 4.978564e-39
2.0824676 0.50411594 -5.7220459e-06 4.978564e-39
2.094419 0.50583434 -5.6028366e-06 4.978564e-39
2.1064465 0.50531572 -5.6028366e-06 4.978564e-39
2.1145163 0.50421727 -5.6624413e-06 4.978564e-39
2.1226242 0.50537229 -5.6028366e-06 4.978564e-39
2.1356831 0.5058707 -5.6028366e-06 4.978564e-39
2.1471829 0.5043205 -5.6028366e-06 4.978564e-39
2.1554487 0.50548697 -5.6028366e-06 4.978564e-39
2.1637542 0.50665909 -5.7220459e-06 4.978564e-39
2.1721001 0.50325346 -5.6028366e-06 4.978564e-39
2.1847007 0.5050149 -5.7220459e-06 4.978564e-39
2.1973834 0.5067879 -5.8412552e-06 4.978564e-39
2.2058938 0.50334907 -5.7220459e-06 4.978564e-39
2.2144458 0.50453323 -5.7220459e-06 4.978564e-39
2.2230408 0.50572324 -5.8412552e-06 4.978564e-39
2.2316775 0.50691915 -5.8412552e-06 4.978564e-39
2.2447188 0.50404471 -5.7816505e-06 4.978564e-39
2.2578466 0.50584489 -5.8412552e-06 4.978564e-39
2.2666569 0.50705302 -5.8412552e-06 4.978564e-39
2.275511 0.50354612 -5.9604645e-06 4.978564e-39
2.284668 0.50519109 -0.00074483914 4.978564e-39
2.2933531 0.50596899 -5.8412552e-06 4.978564e-39
2.3023417 0.50481123 -5.8412552e-06 4.978564e-39
2.3113756 0.50364757 -5.8412552e-06 4.978564e-39
2.3250186 0.50548208 -5.9604645e-06 4.978564e-39
2.3387539 0.50492638 -5.8412552e-06 4.978564e-39
2.3665543 0.50622487 -6.0796738e-06 4.978564e-39
2.3759165 0.50504398 -6.0796738e-06 4.978564e-39
2.3853266 0.50385684 -6.0796738e-06 4.978564e-39
2.3947856 0.50510353 -6.0796738e-06 4.978564e-39
2.4042938 0.50635672 -6.0796738e-06 4.978564e-39
2.4722583 0.50534856 -6.3180923e-06 4.978564e-39
0.50474107 0.51508027 -3.5832909e-06 4.8863684e-39
0.51474541 0.51520193 -3.6671049e-06 4.8863684e-39
0.52492619 0.51502687 -3.5762787e-06 4.978564e-39
0.53544748 0.51508129 -3.5762787e-06 4.978564e-39
0.54584962 0.51497591 -3.6393894e-06 4.978564e-39
0.55382884 0.51507026 -3.6160152e-06 4.978564e-39
1.5486435 0.51556444 -4.8875809e-06 4.978564e-39
1.5576516 0.51412833 -4.7683716e-06 4.978564e-39
1.565576 0.51475286 -4.7683716e-06 4.978564e-39
1.5735502 0.51538014 -4.839897e-06 4.978564e-39
1.5855923 0.51442796 -4.8875809e-06 4.978564e-39
1.5942532 0.51592118 -4.8875809e-06 4.978564e-39
1.6035559 0.51446289 -4.9352648e-06 4.978564e-39
1.6146779 0.51560128 -4.9471855e-06 4.978564e-39
1.6270711 0.51463431 -4.8160555e-06 4.978564e-39
1.6353898 0.51527572 -5.0067902e-06 4.978564e-39
1.6443621 0.51485837 -5.0067902e-06 4.978564e-39
1.6564074 0.51494658 -5.0067902e-06 4.978564e-39
1.6655039 0.5145241 -5.0067902e-06 4.978564e-39
1.6752756 0.51498568 -5.0067902e-06 4.978564e-39
1.6838738 0.51563889 -5.0067902e-06 4.978564e-39
1.6931484 0.51521564 -5.0663948e-06 4.978564e-39
1.7056011 0.51530677 -5.0663948e-06 4.978564e-39
1.7150065 0.51487833 -5.1259995e-06 4.978564e-39
1.725111 0.51534903 -5.0544741e-06 4.978564e-39
1.7340029 0.51401424 -5.1259995e-06 4.978564e-39
1.7442369 0.514485 -5.1259995e-06 4.978564e-39
1.7558298 0.51476705 -5.1259995e-06 4.978564e-39
1.7662067 0.51524472 -5.1259995e-06 4.978564e-39
1.7760063 0.51480842 -5.1259995e-06 4.978564e-39
1.7858624 0.51436806 -5.2452087e-06 4.978564e-39
1.7964535 0.51484817 -5.2928926e-06 4.978564e-39
1.8057746 0.5155279 -5.2452087e-06 4.978564e-39
1.8158314 0.51508677 -5.2452087e-06 4.978564e-39
1.8259472 0.51464152 -5.1259995e-06 4.978564e-39
1.8354559 0.51532626 -5.1975248e-06 4.978564e-39
1.8463868 0.51581848 -5.364418e-06 4.978564e-39
1.8532599 0.51482797 -5.2452087e-06 4.978564e-39
1.8636305 0.51437771 -5.2452087e-06 4.978564e-39
1.8740627 0.5160166 -5.1259995e-06 4.978564e-39
1.8838695 0.51461637 -5.364418e-06 4.978564e-39
1.8951442 0.51511377 -5.364418e-06 4.978564e-39
1.9065075 0.51561368 -5.3167341e-06 4.978564e-39
1.9165105 0.51419878 -5.4836273e-06 4.978564e-39
1.9236969 0.51530862 -5.364418e-06 4.978564e-39
1.9345412 0.51484978 -5.364418e-06 4.978564e-39
1.9454516 0.51438665 -5.4836273e-06 4.978564e-39
1.9527692 0.51550698 -5.364418e-06 4.978564e-39
1.9638122 0.51504463 -5.4240227e-06 4.978564e-39
1.9749229 0.51457793 -5.4836273e-06 4.978564e-39
1.9868673 0.51508856 -5.364418e-06 4.978564e-39
1.9973834 0.51363605 -5.6028366e-06 4.978564e-39
2.0049396 0.51477277 -5.6028366e-06 4.978564e-39
2.0125306 0.51591474 -5.4836273e-06 4.978564e-39
2.0232215 0.51445234 -5.4836273e-06 4.978564e-39
2.0355167 0.51497126 -5.6028366e-06 4.978564e-39
2.0432501 0.51612437 -5.4836273e-06 4.978564e-39
2.0541425 0.51464891 -5.5313112e-06 4.978564e-39
2.0666697 0.51517344 -5.6028366e-06 4.978564e-39
2.0745499 0.51633799 -5.6028366e-06 4.978564e-39
2.0824676 0.51527601 -5.7220459e-06 4.978564e-39
2.094419 0.51479423 -5.6028366e-06 4.978564e-39
2.1064465 0.51655561 -5.6028366e-06 4.978564e-39
2.1145163 0.51548404 -5.7220459e-06 4.978564e-39
2.1226242 0.51440728 -5.6028366e-06 4.978564e-39
2.1348643 0.5161835 -5.6028366e-06 4.978564e-39
2.1471829 0.51342094 -5.6028366e-06 4.978564e-39
2.1554487 0.5146094 -5.6028366e-06 4.978564e-39
2.1637542 0.51580358 -5.7220459e-06 4.978564e-39
2.1721001 0.51471192 -5.6028366e-06 4.978564e-39
2.1847007 0.51421517 -5.7220459e-06 4.978564e-39
2.1973834 0.51602185 -5.8412552e-06 4.978564e-39
2.2058938 0.51492 -5.7220459e-06 4.978564e-39
2.2144458 0.51381272 -5.7220459e-06 4.978564e-39
2.2230408 0.51502562 -5.8412552e-06 4.978564e-39
2.2316775 0.51624447 -5.8412552e-06 4.978564e-39
2.2438464 0.51468515 -5.7935713e-06 4.978564e-39
2.2578466 0.51523995 -5.8412552e-06 4.978564e-39
2.2666569 0.51647151 -5.8412552e-06 4.978564e-39
2.275511 0.51298821 -5.9604645e-06 4.978564e-39
2.2844098 0.51422024 -5.8412552e-06 4.978564e-39
2.2933531 0.51545858 -5.8412552e-06 4.978564e-39
2.3023417 0.51670313 -5.8412552e-06 4.978564e-39
2.3113756 0.51318514 -5.8412552e-06 4.978564e-39
2.3250186 0.51505595 -5.9604645e-06 4.978564e-39
2.3387539 0.51693946 -5.8412552e-06 4.978564e-39
2.35724 0.5146445 -5.9604645e-06 4.978564e-39
2.3665543 0.51590937 -6.0796738e-06 4.978564e-39
2.3759165 0.51718068 -6.0796738e-06 4.978564e-39
2.3947856 0.51242328 -6.0796738e-06 4.978564e-39
2.4138515 0.51987952 -6.0796738e-06 4.978564e-39
2.5634241 0.51967382 -6.3180923e-06 4.978564e-39
0.50487226 0.52512848 -3.5762787e-06 4.8863684e-39
0.51474559 0.52494717 -3.695488e-06 4.8863684e-39
0.52485907 0.52488607 -3.604328e-06 4.978564e-39
0.53511828 0.52518022 -3.5762787e-06 4.978564e-39
0.54564399 0.52494836 -3.6358833e-06 4.978564e-39
0.5538289 0.52478594 -3.6160152e-06 4.978564e-39
1.5486435 0.52494776 -4.8875809e-06 4.978564e-39
1.5572189 0.5239802 -9.0896036e-05 4.978564e-39
1.565576 0.52608055 -4.7683716e-06 4.978564e-39
1.5746927 0.52466953 -4.8160555e-06 4.978564e-39
1.5850165 0.52497274 -4.8875809e-06 4.978564e-39
1.5942533 0.52545631 -4.8875809e-06 4.978564e-39
1.6029729 0.52507585 -4.9471855e-06 4.978564e-39
1.6146779 0.52520442 -4.9471855e-06 4.978564e-39
1.6264787 0.525334 -4.8279762e-06 4.978564e-39
1.6353898 0.52494782 -5.0067902e-06 4.978564e-39
1.644362 0.52456027 -5.0067902e-06 4.978564e-39
1.6564075 0.5246886 -5.0067902e-06 4.978564e-39
1.6655039 0.52429634 -5.0067902e-06 4.978564e-39
1.674051 0.52497351 -5.0067902e-06 4.978564e-39
1.6838738 0.52547228 -5.0067902e-06 4.978564e-39
1.6931483 0.52507991 -5.0663948e-06 4.978564e-39
1.705601 0.52521259 -5.0663948e-06 4.978564e-39
1.7150065 0.52481538 -5.1259995e-06 4.978564e-39
1.7238448 0.52550554 -5.0783156e-06 4.978564e-39
1.7351587 0.52479386 -0.0016541531 4.978564e-39
1.7429543 0.52470666 -5.1259995e-06 4.978564e-39
1.7571236 0.52465183 -5.1498414e-06 4.978564e-39
1.7660016 0.5259673 -0.0015169779 4.978564e-39
1.7760065 0.52494848 -5.1259995e-06 4.978564e-39
1.7858624 0.52454096 -5.2452087e-06 4.978564e-39
1.7951262 0.52524674 -5.3167341e-06 4.978564e-39
1.8057746 0.52576709 -5.2452087e-06 4.978564e-39
1.8151592 0.52442706 -5.2928926e-06 4.978564e-39
1.8259472 0.52494788 -5.1259995e-06 4.978564e-39
1.8368185 0.52547145 -5.1736833e-06 4.978564e-39
1.8463868 0.52411795 -5.364418e-06 4.978564e-39
1.8532599 0.52522516 -5.2452087e-06 4.978564e-39
1.8636307 0.52480954 -5.2452087e-06 4.978564e-39
1.8740627 0.52438974 -5.1259995e-06 4.978564e-39
1.8852749 0.52491939 -5.364418e-06 4.978564e-39
1.8951441 0.52565038 -5.364418e-06 4.978564e-39
1.9057953 0.52523047 -5.3048134e-06 4.978564e-39
1.9165105 0.52480656 -5.4836273e-06 4.978564e-39
1.9236969 0.52381396 -5.364418e-06 4.978564e-39
1.9345412 0.52551758 -5.364418e-06 4.978564e-39
1.9454516 0.52509069 -5.4836273e-06 4.978564e-39
1.9527692 0.52408969 -5.364418e-06 4.978564e-39
1.9638121 0.52580982 -5.4240227e-06 4.978564e-39
1.9749228 0.52538007 -5.4836273e-06 4.978564e-39
1.9861187 0.52494866 -5.364418e-06 4.978564e-39
1.9973835 0.52451295 -5.6028366e-06 4.978564e-39
2.0049396 0.52349442 -5.6028366e-06 4.978564e-39
2.0125306 0.52465659 -5.4836273e-06 4.978564e-39
2.024754 0.52521068 -5.4836273e-06 4.978564e-39
2.0355167 0.52377433 -5.6028366e-06 4.978564e-39
2.0432501 0.524948 -5.4836273e-06 4.978564e-39
2.0557036 0.52550834 -5.5551527e-06 4.978564e-39
2.0666697 0.52405941 -5.6028366e-06 4.978564e-39
2.0745499 0.52524495 -5.6028366e-06 4.978564e-39
2.0824676 0.52643609 -5.7220459e-06 4.978564e-39
2.0936198 0.52497733 -5.6028366e-06 4.978564e-39
2.1064465 0.5255475 -5.6028366e-06 4.978564e-39
2.1145163 0.5267508 -5.7220459e-06 4.978564e-39
2.1226242 0.52344227 -5.6028366e-06 4.978564e-39
2.1348643 0.52525103 -5.6028366e-06 4.978564e-39
2.1471829 0.52479643 -5.6028366e-06 4.978564e-39
2.1559677 0.52472782 -0.00079444359 4.978564e-39
2.1637542 0.52494806 -5.7220459e-06 4.978564e-39
2.1721001 0.52617031 -5.6028366e-06 4.978564e-39
2.1838579 0.52467155 -5.7220459e-06 4.978564e-39
2.1973834 0.52525592 -5.8412552e-06 4.978564e-39
2.205894 0.52649093 -5.7816505e-06 4.978564e-39
2.2144458 0.52309221 -5.7220459e-06 4.978564e-39
2.2230408 0.52432799 -5.8412552e-06 4.978564e-39
2.2316775 0.5255698 -5.8412552e-06 4.978564e-39
2.2447188 0.52510196 -5.7816505e-06 4.978564e-39
2.2578466 0.52463496 -5.8412552e-06 4.978564e-39
2.2666569 0.52588999 -5.8412552e-06 4.978564e-39
2.275511 0.52479082 -5.9604645e-06 4.978564e-39
2.2844098 0.52368605 -5.8412552e-06 4.978564e-39
2.2933533 0.52494818 -5.9604645e-06 4.978564e-39
2.3023417 0.52621663 -5.8412552e-06 4.978564e-39
2.3113756 0.52510715 -5.8412552e-06 4.978564e-39
2.3250186 0.52462983 -5.9604645e-06 4.978564e-39
2.3387539 0.52654994 -5.8412552e-06 4.978564e-39
2.35724 0.52430421 -5.9604645e-06 4.978564e-39
2.3665543 0.52559388 -6.0796738e-06 4.978564e-39
2.3759165 0.52689016 -6.0796738e-06 4.978564e-39
2.4138515 0.52478468 -6.0796738e-06 4.978564e-39
2.4234591 0.52363676 -6.0796738e-06 4.978564e-39
2.5653913 0.52792406 -0.0011623453 4.978564e-39
2.5738285 0.52614254 -6.3180923e-06 4.978564e-39
0.50447965 0.53516519 -3.5903033e-06 4.8863684e-39
0.51485264 0.53470081 -3.695488e-06 4.8863684e-39
0.52472055 0.53508544 -0.00041059521 4.8863684e-39
0.53522795 0.53504455 -3.6120414e-06 4.978564e-39
0.54543871 0.53491735 -3.6323772e-06 4.978564e-39
0.55364817 0.53491741 -3.6129584e-06 4.978564e-39
1.5486435 0.53433114 -4.8875809e-06 4.978564e-39
1.5565227 0.53500926 -4.7683716e-06 4.978564e-39
1.5655758 0.5355202 -4.7683716e-06 4.978564e-39
1.5741215 0.53517389 -4.8279762e-06 4.978564e-39
1.5861681 0.53430349 -4.8875809e-06 4.978564e-39
1.5942532 0.5349915 -4.8875809e-06 4.978564e-39
1.6023901 0.53568256 -4.9591063e-06 4.978564e-39
1.614678 0.53480756 -4.9471855e-06 4.978564e-39
1.6264788 0.53497648 -4.9471855e-06 4.978564e-39
1.6356148 0.5359112 -0.0018231795 4.978564e-39
1.6437622 0.53531981 -5.0067902e-06 4.978564e-39
1.6564075 0.53443062 -5.0067902e-06 4.978564e-39
1.6655039 0.53602314 -5.0067902e-06 4.978564e-39
1.6752756 0.53459537 -5.0067902e-06 4.978564e-39
1.6838738 0.53530574 -5.0067902e-06 4.978564e-39
1.6931484 0.53494424 -5.0663948e-06 4.978564e-39
1.7056011 0.53511834 -5.0663948e-06 4.978564e-39
1.7150065 0.53475249 -5.1259995e-06 4.978564e-39
1.725111 0.53529036 -5.0544741e-06 4.978564e-39
1.7340029 0.53401482 -5.1259995e-06 4.978564e-39
1.7442369 0.53455359 -5.1259995e-06 4.978564e-39
1.75583 0.53491294 -5.1975248e-06 4.978564e-39
1.7662067 0.53545964 -5.1259995e-06 4.978564e-39
1.7760063 0.53508854 -5.1259995e-06 4.978564e-39
1.7858624 0.53471386 -5.2452087e-06 4.978564e-39
1.7964535 0.53526449 -5.2928926e-06 4.978564e-39
1.8057746 0.53395844 -5.2452087e-06 4.978564e-39
1.8165041 0.5345099 -5.3167341e-06 4.978564e-39
1.8259472 0.53525418 -5.1259995e-06 4.978564e-39
1.8351307 0.53468102 -0.00018509993 4.978564e-39
1.8463868 0.53449231 -5.364418e-06 4.978564e-39
1.8532599 0.53562242 -5.2452087e-06 4.978564e-39
1.8636305 0.53524119 -5.2452087e-06 4.978564e-39
1.8740627 0.53485614 -5.1259995e-06 4.978564e-39
1.8845723 0.53446984 -5.364418e-06 4.978564e-39
1.8951442 0.53618699 -5.364418e-06 4.978564e-39
1.9050831 0.53484064 -5.2928926e-06 4.978564e-39
1.9165105 0.53541428 -5.4836273e-06 4.978564e-39
1.9236969 0.53444558 -5.364418e-06 4.978564e-39
1.9338162 0.53521454 -5.364418e-06 4.978564e-39
1.9454516 0.53579479 -5.4836273e-06 4.978564e-39
1.9527692 0.53481811 -5.364418e-06 4.978564e-39
1.9638121 0.53442198 -5.4240227e-06 4.978564e-39
1.9749229 0.53618222 -5.4836273e-06 4.978564e-39
1.9853699 0.53480184 -5.364418e-06 4.978564e-39
1.9973834 0.53538984 -5.6028366e-06 4.978564e-39
2.0049396 0.53439647 -5.6028366e-06 4.978564e-39
2.0125306 0.53558391 -5.4836273e-06 4.978564e-39
2.0239878 0.53518313 -5.4836273e-06 4.978564e-39
2.0355167 0.53477812 -5.6028366e-06 4.978564e-39
2.0432501 0.53377163 -5.543232e-06 4.978564e-39
2.0549231 0.53557444 -5.543232e-06 4.978564e-39
2.0666697 0.53516698 -5.6028366e-06 4.978564e-39
2.0745499 0.53415191 -5.6028366e-06 4.978564e-39
2.0824676 0.53536415 -5.7220459e-06 4.978564e-39
2.094419 0.53495133 -5.6028366e-06 4.978564e-39
2.1064465 0.53453946 -5.6028366e-06 4.978564e-39
2.1145163 0.53576416 -5.7220459e-06 4.978564e-39
2.1226242 0.53473598 -5.6823096e-06 4.978564e-39
2.1348643 0.53431869 -5.6028366e-06 4.978564e-39
2.1471829 0.53617185 -5.6028366e-06 4.978564e-39
2.1554487 0.53513479 -5.6028366e-06 4.978564e-39
2.1637542 0.53409261 -5.7220459e-06 4.978564e-39
2.1721001 0.53533703 -5.6028366e-06 4.978564e-39
2.1847007 0.534913 -5.7220459e-06 4.978564e-39
2.1973834 0.53448999 -5.8412552e-06 4.978564e-39
2.205894 0.53574765 -5.8412552e-06 4.978564e-39
2.2144458 0.53469151 -5.7220459e-06 4.978564e-39
2.2230408 0.53363037 -5.8412552e-06 4.978564e-39
2.2316775 0.53489518 -5.8412552e-06 4.978564e-39
2.2455909 0.53552699 -5.7697298e-06 4.978564e-39
2.2578466 0.53403002 -5.8412552e-06 4.978564e-39
2.2666569 0.53530848 -5.8412552e-06 4.978564e-39
2.275511 0.53659338 -5.9604645e-06 4.978564e-39
2.2844098 0.53315181 -5.8412552e-06 4.978564e-39
2.2933536 0.53443778 -6.0796738e-06 4.978564e-39
2.3023417 0.53573012 -5.8412552e-06 4.978564e-39
2.3113756 0.53702909 -5.8412552e-06 4.978564e-39
2.3250186 0.53420377 -5.9604645e-06 4.978564e-39
2.3387539 0.53616035 -5.8412552e-06 4.978564e-39
2.35724 0.53396392 -5.9604645e-06 4.978564e-39
2.3665543 0.53527832 -6.0796738e-06 4.978564e-39
2.3759165 0.53659952 -6.0796738e-06 4.978564e-39
2.3853269 0.53306031 -6.0796738e-06 4.978564e-39
2.3947856 0.53438252 -6.0796738e-06 4.978564e-39
2.4042938 0.53571165 -6.0796738e-06 4.978564e-39
2.5634241 0.53498685 -6.3180923e-06 4.978564e-39
2.5738285 0.53381979 -6.3180923e-06 4.978564e-39
0.50461012 0.54521197 -3.6393894e-06 4.8863684e-39
0.51474613 0.54491347 -3.695488e-06 4.8863684e-39
0.52492619 0.54490739 -3.6358833e-06 4.978564e-39
0.53522766 0.54490167 -3.6500749e-06 4.978564e-39
0.54557532 0.54519606 -3.6674387e-06 4.978564e-39
0.5538289 0.54502589 -3.6160152e-06 4.978564e-39
1.5486435 0.54559118 -4.8875809e-06 4.978564e-39
1.5576516 0.54425097 -4.7683716e-06 4.978564e-39
1.565576 0.54495996 -4.7683716e-06 4.978564e-39
1.574612 0.54521221 -0.0011244797 4.978564e-39
1.5855923 0.5448482 -4.8875809e-06 4.978564e-39
1.5942533 0.5445267 -4.8875809e-06 4.978564e-39
1.6035559 0.54507452 -4.9352648e-06 4.978564e-39
1.6140903 0.54545552 -4.9591063e-06 4.978564e-39
1.6264788 0.5446189 -4.9471855e-06 4.978564e-39
1.6353898 0.54429197 -5.0067902e-06 4.978564e-39
1.6449617 0.54484689 -5.0067902e-06 4.978564e-39
1.6558027 0.54523259 -4.9829482e-06 4.978564e-39
1.6655039 0.54579544 -5.0067902e-06 4.978564e-39
1.6746635 0.54546887 -5.0067902e-06 4.978564e-39
1.6838738 0.54513919 -5.0067902e-06 4.978564e-39
1.6931483 0.54480857 -5.0663948e-06 4.978564e-39
1.7056011 0.54502404 -5.0663948e-06 4.978564e-39
1.7150065 0.54468954 -5.1259995e-06 4.978564e-39
1.7238445 0.54543847 -5.0783156e-06 4.978564e-39
1.7340029 0.54401511 -5.1259995e-06 4.978564e-39
1.7429543 0.5447669 -5.1259995e-06 4.978564e-39
1.7571236 0.5448063 -5.1975248e-06 4.978564e-39
1.7662067 0.54556715 -5.1259995e-06 4.978564e-39
1.7760063 0.54522866 -5.1259995e-06 4.978564e-39
1.7858624 0.54488677 -5.2452087e-06 4.978564e-39
1.7957897 0.54454392 -5.3048134e-06 4.978564e-39
1.8057746 0.54419756 -5.2452087e-06 4.978564e-39
1.8151592 0.54496783 -5.2928926e-06 4.978564e-39
1.8259473 0.54556048 -5.1856041e-06 4.978564e-39
1.8361372 0.54521537 -5.1856041e-06 4.978564e-39
1.8463868 0.54486668 -5.364418e-06 4.978564e-39
1.8532599 0.54601961 -5.2452087e-06 4.978564e-39
1.8629372 0.54472166 -5.2690507e-06 4.978564e-39
1.8740627 0.54532266 -5.1259995e-06 4.978564e-39
1.8845721 0.54497135 -5.364418e-06 4.978564e-39
1.8951443 0.54461634 -5.364418e-06 4.978564e-39
1.9065075 0.54522216 -5.3167341e-06 4.978564e-39
1.9165105 0.54390049 -5.4836273e-06 4.978564e-39
1.9236969 0.5450772 -5.364418e-06 4.978564e-39
1.9352665 0.54569018 -5.364418e-06 4.978564e-39
1.9454516 0.54435802 -5.4836273e-06 4.978564e-39
1.9527692 0.54554653 -5.364418e-06 4.978564e-39
1.963074 0.54420555 -5.4836273e-06 4.978564e-39
1.9749229 0.54482394 -5.4836273e-06 4.978564e-39
1.9868673 0.5454458 -5.364418e-06 4.978564e-39
1.9973834 0.54409134 -5.6028366e-06 4.978564e-39
2.0049396 0.54529852 -5.6028366e-06 4.978564e-39
2.0125306 0.54651123 -5.4836273e-06 4.978564e-39
2.0232215 0.54514843 -5.4836273e-06 4.978564e-39
2.0355167 0.54578197 -5.6028366e-06 4.978564e-39
2.0432503 0.54480129 -5.6028366e-06 4.978564e-39
2.0549231 0.54442912 -5.543232e-06 4.978564e-39
2.0666697 0.54627442 -5.6028366e-06 4.978564e-39
2.0745499 0.5452857 -5.6028366e-06 4.978564e-39
2.0824676 0.54429221 -5.7220459e-06 4.978564e-39
2.0952182 0.54493272 -5.6028366e-06 4.978564e-39
2.1064465 0.54353136 -5.6028366e-06 4.978564e-39
2.1145163 0.54477757 -5.7220459e-06 4.978564e-39
2.1226242 0.54602975 -5.7220459e-06 4.978564e-39
2.1340458 0.54461938 -5.6028366e-06 4.978564e-39
2.1471829 0.54527223 -5.6028366e-06 4.978564e-39
2.1554487 0.54653776 -5.6028366e-06 4.978564e-39
2.1637542 0.54323709 -5.7220459e-06 4.978564e-39
2.1721001 0.54450375 -5.6028366e-06 4.978564e-39
2.1855435 0.54516238 -5.7220459e-06 4.978564e-39
2.1973834 0.54372406 -5.8412552e-06 4.978564e-39
2.205894 0.54500437 -5.8412552e-06 4.978564e-39
2.2144458 0.54629087 -5.7220459e-06 4.978564e-39
2.2230408 0.54525828 -5.8412552e-06 4.978564e-39
2.2316775 0.54422057 -5.8412552e-06 4.978564e-39
2.2447188 0.54616511 -5.7816505e-06 4.978564e-39
2.2578466 0.54342508 -5.8412552e-06 4.978564e-39
2.2666569 0.54472703 -5.8412552e-06 4.978564e-39
2.275511 0.54603547 -5.9604645e-06 4.978564e-39
2.2844098 0.54498404 -5.8412552e-06 4.978564e-39
2.2933536 0.54392737 -6.0796738e-06 4.978564e-39
2.3023417 0.54524362 -5.8412552e-06 4.978564e-39
2.3113756 0.54656661 -5.8412552e-06 4.978564e-39
2.3250186 0.54377764 -5.9604645e-06 4.978564e-39
2.3387539 0.54577088 -5.8412552e-06 4.978564e-39
2.3665543 0.54496288 -6.0796738e-06 4.978564e-39
2.3759165 0.54630899 -6.0796738e-06 4.978564e-39
2.3853269 0.54279482 -6.0796738e-06 4.978564e-39
2.3947859 0.54414225 -6.0796738e-06 4.978564e-39
2.4042938 0.5454967 -6.0796738e-06 4.978564e-39
2.5738285 0.54405624 -6.3180923e-06 4.978564e-39
2.5842898 0.54291075 -6.4373016e-06 4.978564e-39
0.50467575 0.55496305 -3.6358833e-06 4.8863684e-39
0.51463842 0.55512458 -3.695488e-06 4.8863684e-39
0.52512717 0.5547753 -3.6674387e-06 4.978564e-39
0.53522801 0.55475867 -3.6478043e-06 4.978564e-39
0.54547727 0.55506545 -0.00016234897 4.8863684e-39
0.5538289 0.55474156 -3.6557515e-06 4.978564e-39
1.5486435 0.55497456 -4.8875809e-06 4.978564e-39
1.5570873 0.55468839 -4.7683716e-06 4.978564e-39
1.5655758 0.55439961 -4.7683716e-06 4.978564e-39
1.5746927 0.55497372 -4.8637389e-06 4.978564e-39
1.5850165 0.55538684 -4.8875809e-06 4.978564e-39
1.5942532 0.55406183 -4.8875809e-06 4.978564e-39
1.6023901 0.55480707 -4.9591063e-06 4.978564e-39
1.6152656 0.55488962 -4.9352648e-06 4.978564e-39
1.6258866 0.55530834 -4.9352648e-06 4.978564e-39
1.6353898 0.55396408 -5.0862632e-06 4.978564e-39
1.6437622 0.55471975 -5.0067902e-06 4.978564e-39
1.6570122 0.55480313 -5.0306321e-06 4.978564e-39
1.6655039 0.55556774 -5.0067902e-06 4.978564e-39
1.6746634 0.55527169 -5.0067902e-06 4.978564e-39
1.6838738 0.55497265 -5.0067902e-06 4.978564e-39
1.6931484 0.5546729 -5.1856041e-06 4.978564e-39
1.7056011 0.55492979 -5.0663948e-06 4.978564e-39
1.7150065 0.55462658 -5.1259995e-06 4.978564e-39
1.725111 0.55523169 -5.0544741e-06 4.978564e-39
1.7334027 0.55481631 -0.00078401394 4.978564e-39
1.7442369 0.55462229 -5.1259995e-06 4.978564e-39
1.7558302 0.55505884 -5.2452087e-06 4.978564e-39
1.7662067 0.55567461 -5.1259995e-06 4.978564e-39
1.7753512 0.55444199 -5.1259995e-06 4.978564e-39
1.7858624 0.55505967 -5.2452087e-06 4.978564e-39
1.7957897 0.55474985 -5.3048134e-06 4.978564e-39
1.8057746 0.55443674 -5.2452087e-06 4.978564e-39
1.8165041 0.55505973 -5.3167341e-06 4.978564e-39
1.8259474 0.5558669 -5.2452087e-06 4.978564e-39
1.8361372 0.55555552 -5.1856041e-06 4.978564e-39
1.8463868 0.55524093 -5.364418e-06 4.978564e-39
1.8532599 0.55433738 -5.2452087e-06 4.978564e-39
1.864324 0.55496967 -5.2213668e-06 4.978564e-39
1.8740627 0.55578905 -5.1259995e-06 4.978564e-39
1.8845723 0.55547273 -5.364418e-06 4.978564e-39
1.8951443 0.55515295 -5.364418e-06 4.978564e-39
1.9057953 0.55483228 -5.3048134e-06 4.978564e-39
1.9165105 0.55450821 -5.4836273e-06 4.978564e-39
1.9236969 0.55570889 -5.364418e-06 4.978564e-39
1.9345412 0.55538726 -5.364418e-06 4.978564e-39
1.9454516 0.55506212 -5.4836273e-06 4.978564e-39
1.9527692 0.55412924 -5.364418e-06 4.978564e-39
1.9645507 0.55478096 -5.4836273e-06 4.978564e-39
1.9749228 0.55562609 -5.4836273e-06 4.978564e-39
1.9861186 0.55529898 -5.364418e-06 4.978564e-39
1.9973835 0.5549683 -5.6028366e-06 4.978564e-39
2.0049396 0.55402017 -5.6028366e-06 4.978564e-39
2.0125306 0.55525309 -5.4836273e-06 4.978564e-39
2.024754 0.55592108 -5.4836273e-06 4.978564e-39
2.0355167 0.55458498 -5.6028366e-06 4.978564e-39
2.0432503 0.55583084 -5.6028366e-06 4.978564e-39
2.0541425 0.5544858 -5.5551527e-06 4.978564e-39
2.0666697 0.5551604 -5.6028366e-06 4.978564e-39
2.0745499 0.55641937 -5.6028366e-06 4.978564e-39
2.0824676 0.55545229 -5.7220459e-06 4.978564e-39
2.094419 0.55511373 -5.6028366e-06 4.978564e-39
2.1064465 0.55477124 -5.6028366e-06 4.978564e-39
2.1145163 0.55379099 -5.7220459e-06 4.978564e-39
2.1226242 0.5550648 -5.7220459e-06 4.978564e-39
2.1356831 0.55575448 -5.6266786e-06 4.978564e-39
2.1471829 0.55437267 -5.6028366e-06 4.978564e-39
2.1554487 0.55566013 -5.6028366e-06 4.978564e-39
2.1637542 0.55466771 -5.7220459e-06 4.978564e-39
2.172416 0.55576897 -0.00041583905 4.978564e-39
2.1847007 0.55561644 -5.7220459e-06 4.978564e-39
2.1973834 0.55526662 -5.8412552e-06 4.978564e-39
2.205894 0.55426109 -5.8412552e-06 4.978564e-39
2.2144461 0.55557042 -5.8412552e-06 4.978564e-39
2.2230408 0.55688626 -5.8412552e-06 4.978564e-39
2.2316775 0.55354595 -5.8412552e-06 4.978564e-39
2.2447188 0.55552524 -5.7816505e-06 4.978564e-39
2.2578466 0.55516887 -5.8412552e-06 4.978564e-39
2.2666569 0.55414551 -5.8412552e-06 4.978564e-39
2.275511 0.55547756 -5.9604645e-06 4.978564e-39
2.2844098 0.55681622 -5.8412552e-06 4.978564e-39
2.2933536 0.55341697 -6.0796738e-06 4.978564e-39
2.3023419 0.55475724 -6.0796738e-06 4.978564e-39
2.3113756 0.55610418 -5.8412552e-06 4.978564e-39
2.3241062 0.55465096 -5.9366225e-06 4.978564e-39
2.3387539 0.5553813 -5.8412552e-06 4.978564e-39
2.3665543 0.55222619 -6.0796738e-06 4.978564e-39
2.3759165 0.55359101 -6.0796738e-06 4.978564e-39
2.3853269 0.55252928 -6.0796738e-06 4.978564e-39
2.3947859 0.55390191 -6.0796738e-06 4.978564e-39
2.4042938 0.55528164 -6.0796738e-06 4.978564e-39
2.4722583 0.55766982 -6.3180923e-06 4.978564e-39
2.5738285 0.55173355 -6.3180923e-06 4.978564e-39
0.50474101 0.56471521 -3.6393894e-06 4.8863684e-39
0.51474541 0.56511652 -3.695488e-06 4.8863684e-39
0.52472556 0.56491989 -3.6604265e-06 4.978564e-39
0.53512341 0.56486809 -3.6467206e-06 4.978564e-39
0.54564404 0.56484419 -3.695488e-06 4.978564e-39
0.55382872 0.56486219 -3.686318e-06 4.978564e-39
1.5486435 0.56435794 -4.8875809e-06 4.978564e-39
1.5565227 0.56511992 -4.7683716e-06 4.978564e-39
1.565576 0.56383938 -4.7683716e-06 4.978564e-39
1.5741216 0.56547201 -4.9471855e-06 4.978564e-39
1.5861681 0.56472987 -4.8875809e-06 4.978564e-39
1.5942532 0.56550401 -4.8875809e-06 4.978564e-39
1.6035559 0.56420672 -4.9352648e-06 4.978564e-39
1.614678 0.56553757 -4.9471855e-06 4.978564e-39
1.6270714 0.56478518 -4.9591063e-06 4.978564e-39
1.6353899 0.56557059 -5.1259995e-06 4.978564e-39
1.644962 0.56425482 -5.0067902e-06 4.978564e-39
1.6558027 0.56471264 -4.9829482e-06 4.978564e-39
1.6655039 0.56534004 -5.0067902e-06 4.978564e-39
1.6746634 0.56507444 -5.0067902e-06 4.978564e-39
1.6838738 0.5648061 -5.0067902e-06 4.978564e-39
1.6931485 0.56453723 -5.1856041e-06 4.978564e-39
1.7056011 0.56483555 -5.0663948e-06 4.978564e-39
1.7150065 0.56456369 -5.1259995e-06 4.978564e-39
1.7238448 0.56537139 -5.0783156e-06 4.978564e-39
1.7340029 0.56401569 -5.1259995e-06 4.978564e-39
1.7429543 0.56482708 -5.1259995e-06 4.978564e-39
1.7571237 0.56496084 -5.2452087e-06 4.978564e-39
1.7662067 0.56578207 -5.1259995e-06 4.978564e-39
1.7766615 0.56440765 -5.1259995e-06 4.978564e-39
1.7858624 0.56523257 -5.2452087e-06 4.978564e-39
1.7957897 0.56495577 -5.3048134e-06 4.978564e-39
1.8057746 0.56467593 -5.2452087e-06 4.978564e-39
1.8151592 0.56550872 -5.2928926e-06 4.978564e-39
1.8259474 0.5661732 -5.2452087e-06 4.978564e-39
1.8354559 0.56494838 -5.2213668e-06 4.978564e-39
1.8463868 0.5656153 -5.364418e-06 4.978564e-39
1.8532599 0.56473458 -5.2452087e-06 4.978564e-39
1.8636305 0.56445003 -5.2452087e-06 4.978564e-39
1.8740627 0.56625557 -5.1259995e-06 4.978564e-39
1.8838695 0.56501198 -5.364418e-06 4.978564e-39
1.8951443 0.56568956 -5.364418e-06 4.978564e-39
1.9050833 0.56443584 -5.3405761e-06 4.978564e-39
1.9165105 0.56511593 -5.4836273e-06 4.978564e-39
1.9236969 0.56634051 -5.364418e-06 4.978564e-39
1.9338162 0.56507748 -5.364418e-06 4.978564e-39
1.9454516 0.56576616 -5.4836273e-06 4.978564e-39
1.9527692 0.56485772 -5.364418e-06 4.978564e-39
1.9638122 0.56456447 -5.4836273e-06 4.978564e-39
1.974923 0.5664283 -5.4836273e-06 4.978564e-39
1.98537 0.56514513 -5.364418e-06 4.978564e-39
1.9973834 0.56584513 -5.6028366e-06 4.978564e-39
2.0049396 0.56492215 -5.6028366e-06 4.978564e-39
2.0125306 0.56399494 -5.4836273e-06 4.978564e-39
2.0239878 0.56588638 -5.4836273e-06 4.978564e-39
2.0355167 0.56558889 -5.6028366e-06 4.978564e-39
2.0432503 0.56465447 -5.6028366e-06 4.978564e-39
2.0557039 0.56536406 -5.6028366e-06 4.978564e-39
2.0666697 0.5640465 -5.6028366e-06 4.978564e-39
2.0745499 0.56532639 -5.6028366e-06 4.978564e-39
2.0824676 0.56661242 -5.7220459e-06 4.978564e-39
2.094419 0.56407362 -5.6028366e-06 4.978564e-39
2.1067746 0.56531954 -0.00045523257 4.978564e-39
2.1145163 0.56505775 -5.7220459e-06 4.978564e-39
2.1226242 0.56409979 -5.7220459e-06 4.978564e-39
2.1348643 0.56605524 -5.6624413e-06 4.978564e-39
2.1471829 0.56347299 -5.6028366e-06 4.978564e-39
2.1554487 0.56478256 -5.6028366e-06 4.978564e-39
2.1637542 0.56609839 -5.7220459e-06 4.978564e-39
2.1721001 0.56512892 -5.6028366e-06 4.978564e-39
2.1847007 0.56481671 -5.7220459e-06 4.978564e-39
2.1973834 0.56680918 -5.8412552e-06 4.978564e-39
2.205894 0.56351781 -5.8412552e-06 4.978564e-39
2.2144461 0.56484991 -5.8412552e-06 4.978564e-39
2.2230408 0.56618863 -5.8412552e-06 4.978564e-39
2.2316775 0.56520265 -5.8412552e-06 4.978564e-39
2.2447188 0.56488526 -5.7816505e-06 4.978564e-39
2.2578466 0.56691265 -5.8412552e-06 4.978564e-39
2.2666569 0.563564 -5.8412552e-06 4.978564e-39
2.275511 0.56491965 -5.9604645e-06 4.978564e-39
2.2844098 0.56628203 -5.8412552e-06 4.978564e-39
2.2933536 0.56290656 -6.0796738e-06 4.978564e-39
2.3023419 0.56427073 -6.0796738e-06 4.978564e-39
2.3113756 0.56564176 -5.8412552e-06 4.978564e-39
2.3250186 0.56531584 -5.9604645e-06 4.978564e-39
2.3387539 0.56499183 -5.8412552e-06 4.978564e-39
2.3947859 0.56122166 -6.0796738e-06 4.978564e-39
2.4042938 0.56506664 -6.0796738e-06 4.978564e-39
2.4138515 0.56647903 -6.0796738e-06 4.978564e-39
2.4722583 0.5651443 -6.3180923e-06 4.978564e-39
0.50467604 0.57505298 -3.6623742e-06 4.8863684e-39
0.51474565 0.57486176 -3.695488e-06 4.8863684e-39
0.52485907 0.57508349 -3.6674387e-06 4.978564e-39
0.53544742 0.57519239 -3.6500749e-06 4.978564e-39
0.54571235 0.57482183 -3.695488e-06 4.978564e-39
0.5538289 0.57498264 -3.695488e-06 4.978564e-39
1.5486435 0.57561785 -4.8875809e-06 4.978564e-39
1.5576515 0.5743736 -4.7683716e-06 4.978564e-39
1.565576 0.575167 -4.7683716e-06 4.978564e-39
